# .PCD v0.7 - Point Cloud Data file format
VERSION 0.7
FIELDS x y z
SIZE 4 4 4
TYPE F F F
COUNT 1 1 1
WIDTH 1622
HEIGHT 1
VIEWPOINT 0 0 0 1 0 0 0
POINTS 1622
DATA ascii
962.93524 943.13086 1020.876
962.79901 943.78284 1022.7172
962.68542 944.49963 1024.2522
962.57111 945.22089 1025.7968
962.45612 945.94653 1027.3508
962.34937 946.69867 1028.7935
962.25269 947.48108 1030.1001
962.15546 948.26752 1031.4133
962.0578 949.05798 1032.7334
961.96643 949.86859 1033.9683
961.88385 950.70453 1035.0844
961.80084 951.54413 1036.2054
961.71753 952.38739 1037.3313
961.63422 953.23511 1038.4578
961.56372 954.11572 1039.4105
961.49292 954.99963 1040.3667
961.42194 955.88684 1041.3264
961.35065 956.77734 1042.2897
961.28259 957.67841 1043.2095
961.22253 958.59985 1044.0208
961.16229 959.52423 1044.8346
961.10187 960.45142 1045.6509
961.04132 961.38153 1046.4698
960.98364 962.32074 1047.2488
960.93329 963.27722 1047.9294
960.88281 964.23621 1048.6118
960.83215 965.19763 1049.2959
960.78143 966.16156 1049.9818
960.73114 967.12909 1050.6614
960.68976 968.11554 1051.22
960.64838 969.10413 1051.7798
960.60687 970.09473 1052.3408
960.56525 971.0874 1052.9031
960.52356 972.08228 1053.4664
960.48755 973.08893 1053.9528
960.45477 974.10272 1054.3959
960.42194 975.11823 1054.8398
960.38904 976.13544 1055.2845
960.35608 977.15436 1055.73
960.32367 978.1759 1056.1675
960.29919 979.21124 1056.4983
960.27466 980.2478 1056.8295
960.25012 981.28564 1057.161
960.22559 982.32477 1057.493
960.20099 983.36517 1057.8254
960.17981 984.41162 1058.1119
960.16345 985.46576 1058.3323
960.14716 986.52081 1058.5527
960.13086 987.57678 1058.7734
960.1145 988.63354 1058.9941
960.09814 989.69122 1059.2153
960.08734 990.75653 1059.3607
960.07916 991.8255 1059.4713
960.07098 992.89496 1059.5819
960.06281 993.96484 1059.6925
960.05463 995.03516 1059.8032
960.04645 996.1059 1059.9139
960.04401 997.18317 1059.9465
960.04199 998.26093 1059.9742
960.04022 999.33917 1059.9978
960.0423 1000.4211 1059.97
960.04437 1001.5031 1059.9421
960.0473 1002.5857 1059.902
960.05353 1003.671 1059.8179
960.06073 1004.7569 1059.7206
960.07104 1005.845 1059.5813
960.08105 1006.9322 1059.4465
960.08936 1008.0176 1059.3342
960.1012 1009.1052 1059.1736
960.11591 1010.1943 1058.9752
960.13269 1011.2841 1058.748
960.15161 1012.3743 1058.4926
960.1698 1013.4631 1058.2468
960.18665 1014.5501 1058.0192
960.21014 1015.6401 1057.7017
960.23358 1016.7288 1057.3845
960.26093 1017.8184 1057.0151
960.28876 1018.9067 1056.6389
960.31519 1019.9928 1056.2822
960.34503 1021.0791 1055.8787
960.37775 1022.165 1055.437
960.41229 1023.2499 1054.9697
960.44971 1024.334 1054.4645
960.48676 1025.4159 1053.964
960.52448 1026.4961 1053.4535
960.56702 1027.5756 1052.8794
960.61011 1028.653 1052.2966
960.65771 1029.7292 1051.6532
960.7052 1030.8027 1051.0115
960.75366 1031.874 1050.3566
960.80688 1032.9432 1049.6379
960.8606 1034.0098 1048.912
960.91943 1035.074 1048.1163
960.97815 1036.135 1047.3231
961.04059 1037.193 1046.4796
961.10553 1038.2478 1045.6016
961.1355 1039.299 1045.1965
961.1355 1040.3494 1045.1965
961.1355 1041.3998 1045.1965
961.1355 1042.4502 1045.1965
961.1355 1043.5005 1045.1965
961.1355 1044.5509 1045.1965
961.1355 1045.6013 1045.1965
961.1355 1046.6517 1045.1965
961.1355 1047.702 1045.1965
961.13562 1048.7524 1045.1954
961.13568 1049.8027 1045.194
961.1358 1050.8531 1045.1925
961.13593 1051.9036 1045.191
961.13605 1052.9539 1045.1895
961.13617 1054.0042 1045.188
961.13623 1055.0544 1045.1865
961.13635 1056.1049 1045.1851
961.13647 1057.1552 1045.1835
961.1366 1058.2054 1045.182
961.13672 1059.2557 1045.1805
961.13684 1060.306 1045.179
961.1369 1061.3563 1045.1775
961.13702 1062.4066 1045.176
961.13715 1063.4569 1045.1746
961.13727 1064.5072 1045.173
961.13739 1065.5575 1045.1715
961.13745 1066.6078 1045.17
961.13757 1067.658 1045.1686
961.1377 1068.7083 1045.167
961.13782 1069.7585 1045.1655
961.13794 1070.8087 1045.1641
961.13806 1071.8589 1045.1625
961.13812 1072.9092 1045.161
961.13824 1073.9594 1045.1595
961.13837 1075.0096 1045.1581
961.13849 1076.0598 1045.1565
961.13861 1077.11 1045.155
961.13867 1078.1603 1045.1536
961.13879 1079.2104 1045.1521
961.13892 1080.2606 1045.1505
961.13904 1081.3108 1045.149
961.13916 1082.361 1045.1476
961.13928 1083.4111 1045.1461
961.13934 1084.4613 1045.1445
961.13947 1085.5115 1045.1431
961.13959 1086.5616 1045.1416
961.13971 1087.6117 1045.1401
961.13983 1088.6619 1045.1385
961.13989 1089.712 1045.1371
961.14001 1090.7622 1045.1356
961.14014 1091.8123 1045.1342
961.14026 1092.8624 1045.1326
961.14038 1093.9125 1045.1311
961.1405 1094.9625 1045.1296
961.14056 1096.0127 1045.1281
961.14069 1097.0627 1045.1266
961.14081 1098.1128 1045.1251
961.14093 1099.163 1045.1237
961.14105 1100.213 1045.1221
961.14111 1101.2631 1045.1206
961.14124 1102.3131 1045.1191
961.14136 1103.3632 1045.1177
961.14148 1104.4132 1045.1161
961.1416 1105.4633 1045.1146
961.14166 1106.5133 1045.1132
961.14178 1107.5634 1045.1116
961.14191 1108.6134 1045.1101
961.14203 1109.6633 1045.1086
961.14215 1110.7134 1045.1072
961.14221 1111.7634 1045.1057
961.14233 1112.8135 1045.1041
961.1424 1113.8635 1045.1033
961.1424 1114.9137 1045.1033
961.1424 1115.9639 1045.1033
961.1424 1117.0142 1045.1033
961.1424 1118.0643 1045.1033
961.1424 1119.1145 1045.1033
961.1424 1120.1647 1045.1033
961.1424 1121.215 1045.1033
961.1424 1122.2651 1045.1033
961.1424 1123.3153 1045.1033
961.1424 1124.3655 1045.1033
961.1424 1125.4158 1045.1033
961.1424 1126.4659 1045.1033
961.1424 1127.5161 1045.1033
961.1424 1128.5664 1045.1033
961.1424 1129.6166 1045.1033
961.1424 1130.6667 1045.1033
961.1424 1131.717 1045.1033
961.1424 1132.7672 1045.1033
961.1424 1133.8174 1045.1033
961.1424 1134.8676 1045.1033
961.1424 1135.9177 1045.1033
961.1424 1136.968 1045.1033
961.1424 1138.0182 1045.1033
961.1424 1139.0684 1045.1033
961.1424 1140.1187 1045.1033
961.1424 1141.1688 1045.1033
961.1424 1142.219 1045.1033
961.1424 1143.2692 1045.1033
961.1424 1144.3195 1045.1033
961.1424 1145.3696 1045.1033
961.1424 1146.4198 1045.1033
961.1424 1147.47 1045.1033
961.1424 1148.5203 1045.1033
961.1424 1149.5704 1045.1033
961.1424 1150.6206 1045.1033
961.1424 1151.6709 1045.1033
961.1424 1152.7211 1045.1033
961.1424 1153.7712 1045.1033
961.1424 1154.8214 1045.1033
961.1424 1155.8717 1045.1033
961.1424 1156.9219 1045.1033
961.1424 1157.972 1045.1033
961.1424 1159.0223 1045.1033
961.1424 1160.0725 1045.1033
961.1424 1161.1227 1045.1033
961.1424 1162.1729 1045.1033
961.1424 1163.2231 1045.1033
961.1424 1164.2733 1045.1033
961.1424 1165.3235 1045.1033
961.1424 1166.3738 1045.1033
961.1424 1167.424 1045.1033
961.1424 1168.4741 1045.1033
961.1424 1169.5243 1045.1033
961.1424 1170.5746 1045.1033
961.1424 1171.6248 1045.1033
961.1424 1172.6749 1045.1033
961.1424 1173.7251 1045.1033
961.1424 1174.7754 1045.1033
961.1424 1175.8256 1045.1033
961.1424 1176.8757 1045.1033
961.1424 1177.926 1045.1033
961.1424 1178.9762 1045.1033
962.07434 942.48865 1019.0231
961.93347 943.13086 1020.876
961.79358 943.78284 1022.7172
961.67688 944.49963 1024.2522
961.55951 945.22089 1025.7968
961.44141 945.94653 1027.3508
961.33179 946.69867 1028.7935
961.23248 947.48108 1030.1001
961.13263 948.26752 1031.4133
961.03235 949.05798 1032.7334
960.93848 949.86859 1033.9683
960.85364 950.70453 1035.0844
960.76843 951.54413 1036.2054
960.68292 952.38739 1037.3313
960.59729 953.23511 1038.4578
960.5249 954.11572 1039.4105
960.45221 954.99963 1040.3667
960.37927 955.88684 1041.3264
960.30603 956.77734 1042.2897
960.23615 957.67841 1043.2095
960.1745 958.59985 1044.0208
960.11267 959.52423 1044.8346
960.0506 960.45142 1045.6509
959.98834 961.38153 1046.4698
959.92914 962.32074 1047.2488
959.87744 963.27722 1047.9294
959.82556 964.23621 1048.6118
959.77356 965.19763 1049.2959
959.72144 966.16156 1049.9818
959.6698 967.12909 1050.6614
959.62732 968.11554 1051.22
959.58478 969.10413 1051.7798
959.54218 970.09473 1052.3408
959.49945 971.0874 1052.9031
959.4566 972.08228 1053.4664
959.41968 973.08893 1053.9528
959.38599 974.10272 1054.3959
959.35223 975.11823 1054.8398
959.31842 976.13544 1055.2845
959.28461 977.15436 1055.73
959.25134 978.1759 1056.1675
959.2262 979.21124 1056.4983
959.20105 980.2478 1056.8295
959.17584 981.28564 1057.161
959.15057 982.32477 1057.493
959.12537 983.36517 1057.8254
959.10358 984.41162 1058.1119
959.08679 985.46576 1058.3323
959.07007 986.52081 1058.5527
959.05328 987.57678 1058.7734
959.0365 988.63354 1058.9941
959.01971 989.69122 1059.2153
959.00867 990.75653 1059.3607
959.00024 991.8255 1059.4713
958.99182 992.89496 1059.5819
958.98346 993.96484 1059.6925
958.97504 995.03516 1059.8032
958.96661 996.1059 1059.9139
958.96411 997.18317 1059.9465
958.96204 998.26093 1059.9742
958.96021 999.33917 1059.9978
958.96234 1000.4211 1059.97
958.96448 1001.5031 1059.9421
958.96753 1002.5857 1059.902
958.97388 1003.671 1059.8179
958.98145 1004.757 1059.7191
958.992 1005.845 1059.5798
959.00214 1006.9322 1059.4465
959.01068 1008.0176 1059.3342
959.02289 1009.1052 1059.1736
959.03796 1010.1943 1058.9752
959.05536 1011.2842 1058.7466
959.07477 1012.3745 1058.491
959.09332 1013.4631 1058.2468
959.1106 1014.5501 1058.0192
959.13477 1015.6401 1057.7017
959.15881 1016.7288 1057.3845
959.18707 1017.8184 1057.0134
959.21564 1018.9067 1056.6372
959.24261 1019.9928 1056.2822
959.27332 1021.0791 1055.8787
959.30682 1022.165 1055.437
959.34253 1023.2499 1054.9678
959.38092 1024.334 1054.4624
959.41882 1025.4159 1053.964
959.45758 1026.4961 1053.4535
959.50122 1027.5756 1052.8794
959.54572 1028.6531 1052.2944
959.5946 1029.7292 1051.6511
959.64337 1030.8029 1051.0093
959.69299 1031.874 1050.3566
959.74756 1032.9432 1049.6379
959.80292 1034.0099 1048.9095
959.8634 1035.074 1048.114
959.92371 1036.135 1047.3208
959.98761 1037.193 1046.4796
960.05432 1038.2478 1045.6016
960.12384 1039.299 1044.6873
960.15314 1040.3475 1044.3018
960.15326 1041.3961 1044.3003
960.15338 1042.4447 1044.2988
960.15344 1043.4933 1044.2974
960.15356 1044.5419 1044.2958
960.15369 1045.5905 1044.2944
960.15381 1046.639 1044.2928
960.15393 1047.6876 1044.2914
960.15405 1048.7361 1044.2898
960.15417 1049.7847 1044.2885
960.15424 1050.8333 1044.2869
960.15436 1051.8817 1044.2854
960.15448 1052.9303 1044.2839
960.1546 1053.9789 1044.2825
960.15472 1055.0273 1044.2809
960.15485 1056.0758 1044.2794
960.15491 1057.1243 1044.278
960.15503 1058.1729 1044.2765
960.15515 1059.2213 1044.2749
960.15527 1060.2699 1044.2734
960.1554 1061.3184 1044.272
960.15552 1062.3668 1044.2704
960.15564 1063.4153 1044.2689
960.15576 1064.4637 1044.2675
960.15582 1065.5122 1044.266
960.15594 1066.5607 1044.2645
960.15607 1067.6091 1044.2631
960.15619 1068.6575 1044.2615
960.15631 1069.7059 1044.26
960.15643 1070.7544 1044.2585
960.15656 1071.8029 1044.2571
960.15662 1072.8512 1044.2555
960.15674 1073.8997 1044.254
960.15686 1074.948 1044.2526
960.15698 1075.9965 1044.251
960.1571 1077.0448 1044.2495
960.15723 1078.0933 1044.248
960.15735 1079.1416 1044.2466
960.15741 1080.1899 1044.2451
960.15753 1081.2384 1044.2435
960.15765 1082.2867 1044.2421
960.15778 1083.3351 1044.2406
960.1579 1084.3834 1044.2394
960.1579 1085.4319 1044.2394
960.1579 1086.4805 1044.2394
960.1579 1087.5289 1044.2394
960.1579 1088.5774 1044.2394
960.1579 1089.6259 1044.2394
960.1579 1090.6743 1044.2394
960.1579 1091.7228 1044.2394
960.1579 1092.7712 1044.2394
960.1579 1093.8197 1044.2394
960.1579 1094.8682 1044.2394
960.1579 1095.9167 1044.2394
960.1579 1096.9652 1044.2394
960.1579 1098.0137 1044.2394
960.1579 1099.0621 1044.2394
960.1579 1100.1106 1044.2394
960.1579 1101.1591 1044.2394
960.1579 1102.2075 1044.2394
960.1579 1103.2561 1044.2394
960.1579 1104.3046 1044.2394
960.1579 1105.353 1044.2394
960.1579 1106.4015 1044.2394
960.1579 1107.45 1044.2394
960.1579 1108.4984 1044.2394
960.1579 1109.5469 1044.2394
960.1579 1110.5953 1044.2394
960.1579 1111.6438 1044.2394
960.1579 1112.6924 1044.2394
960.1579 1113.7408 1044.2394
960.1579 1114.7893 1044.2394
960.1579 1115.8378 1044.2394
960.1579 1116.8862 1044.2394
960.1579 1117.9347 1044.2394
960.1579 1118.9832 1044.2394
960.1579 1120.0317 1044.2394
960.1579 1121.0802 1044.2394
960.1579 1122.1287 1044.2394
960.1579 1123.1771 1044.2394
960.1579 1124.2256 1044.2394
960.1579 1125.274 1044.2394
960.1579 1126.3225 1044.2394
960.1579 1127.371 1044.2394
960.1579 1128.4194 1044.2394
960.1579 1129.468 1044.2394
960.1579 1130.5165 1044.2394
960.15784 1131.5649 1044.2394
960.15784 1132.6134 1044.2394
960.15784 1133.6619 1044.2394
960.15784 1134.7103 1044.2394
960.15784 1135.7588 1044.2394
960.15784 1136.8074 1044.2394
960.15784 1137.8558 1044.2394
960.15784 1138.9043 1044.2394
960.15784 1139.9528 1044.2394
960.15784 1141.0012 1044.2394
960.15784 1142.0497 1044.2394
960.15784 1143.0981 1044.2394
960.15784 1144.1467 1044.2394
960.15784 1145.1951 1044.2394
960.15784 1146.2437 1044.2394
960.15784 1147.2921 1044.2394
960.15784 1148.3406 1044.2394
960.15784 1149.389 1044.2394
960.15784 1150.4375 1044.2394
960.15784 1151.486 1044.2394
960.15784 1152.5344 1044.2394
960.15784 1153.5829 1044.2394
960.15784 1154.6313 1044.2394
960.15784 1155.6799 1044.2394
960.15784 1156.7284 1044.2394
960.15784 1157.7769 1044.2394
960.15784 1158.8253 1044.2394
960.15784 1159.8738 1044.2394
960.15784 1160.9222 1044.2394
960.15784 1161.9707 1044.2394
960.15784 1163.0193 1044.2394
960.15784 1164.0677 1044.2394
960.15784 1165.1162 1044.2394
960.15784 1166.1647 1044.2394
960.15784 1167.2131 1044.2394
960.15784 1168.2616 1044.2394
960.15784 1169.3101 1044.2394
960.15784 1170.3586 1044.2394
960.15784 1171.4071 1044.2394
960.15784 1172.4556 1044.2394
960.15784 1173.504 1044.2394
960.15784 1174.5525 1044.2395
960.15784 1175.601 1044.2394
960.15784 1176.6494 1044.2394
960.15784 1177.698 1044.2394
960.15784 1178.7463 1044.2394
961.07629 942.48865 1019.0231
960.93176 943.13086 1020.876
960.78815 943.78284 1022.7172
960.6684 944.49963 1024.2522
960.54791 945.22089 1025.7968
960.4267 945.94653 1027.3508
960.31421 946.69867 1028.7935
960.21228 947.48108 1030.1001
960.10986 948.26752 1031.4133
960.00684 949.05798 1032.7334
959.91052 949.86859 1033.9683
959.82349 950.70453 1035.0844
959.73608 951.54413 1036.2054
959.64825 952.38739 1037.3313
959.56036 953.23511 1038.4578
959.48608 954.11572 1039.4105
959.4115 954.99963 1040.3667
959.33661 955.88684 1041.3264
959.26147 956.77734 1042.2897
959.18976 957.67841 1043.2095
959.12646 958.59985 1044.0208
959.06299 959.52423 1044.8346
958.99927 960.45142 1045.6509
958.93542 961.38153 1046.4698
958.87463 962.32074 1047.2488
958.82159 963.27722 1047.9294
958.76837 964.23621 1048.6118
958.71497 965.19763 1049.2959
958.6615 966.16156 1049.9818
958.60846 967.12909 1050.6614
958.56488 968.11554 1051.22
958.52124 969.10413 1051.7798
958.47748 970.09473 1052.3408
958.43365 971.0874 1052.9031
958.38971 972.08228 1053.4664
958.35175 973.08893 1053.9528
958.3172 974.10272 1054.3959
958.28253 975.11823 1054.8398
958.24786 976.13544 1055.2845
958.21313 977.15436 1055.73
958.17902 978.1759 1056.1675
958.1532 979.21124 1056.4983
958.12738 980.2478 1056.8295
958.1015 981.28564 1057.161
958.07562 982.32477 1057.493
958.04968 983.36517 1057.8254
958.02734 984.41162 1058.1119
958.01013 985.46576 1058.3323
957.99298 986.52081 1058.5527
957.97577 987.57678 1058.7734
957.9585 988.63354 1058.9941
957.94128 989.69122 1059.2153
957.92993 990.75653 1059.3607
957.92133 991.8255 1059.4713
957.91266 992.89496 1059.5819
957.90405 993.96484 1059.6925
957.89545 995.03516 1059.8032
957.88678 996.1059 1059.9139
957.88422 997.18317 1059.9465
957.88208 998.26093 1059.9742
957.88025 999.33917 1059.9978
957.88239 1000.4211 1059.97
957.88458 1001.5031 1059.9421
957.8877 1002.5857 1059.902
957.89429 1003.671 1059.8179
957.9021 1004.7571 1059.7175
957.91296 1005.8452 1059.5784
957.92322 1006.9322 1059.4465
957.93201 1008.0176 1059.3342
957.94452 1009.1052 1059.1736
957.96002 1010.1943 1058.9752
957.97797 1011.2842 1058.7449
957.99792 1012.3745 1058.4894
958.01678 1013.4631 1058.2468
958.03455 1014.5501 1058.0192
958.05933 1015.6401 1057.7017
958.08405 1016.7288 1057.3845
958.11316 1017.8185 1057.0117
958.14252 1018.9068 1056.6355
958.17004 1019.9928 1056.2822
958.20154 1021.0791 1055.8787
958.23596 1022.165 1055.437
958.27271 1023.25 1054.9658
958.31213 1024.334 1054.4606
958.35089 1025.4159 1053.964
958.39069 1026.4961 1053.4535
958.43549 1027.5756 1052.8794
958.48126 1028.6531 1052.2924
958.53143 1029.7292 1051.6489
958.58148 1030.8029 1051.0072
958.63226 1031.874 1050.3566
958.68829 1032.9432 1049.6379
958.7453 1034.0099 1048.9072
958.80737 1035.0741 1048.1116
958.86926 1036.135 1047.3184
958.93463 1037.193 1046.4796
959.00317 1038.2478 1045.6016
959.07471 1039.299 1044.6844
959.15002 1040.3463 1043.7186
959.17505 1041.3926 1043.3977
959.17517 1042.4393 1043.3962
959.17529 1043.4861 1043.3948
959.17542 1044.5328 1043.3933
959.17548 1045.5796 1043.3918
959.1756 1046.6263 1043.3904
959.17572 1047.6732 1043.3888
959.17584 1048.7198 1043.3873
959.17596 1049.7666 1043.3859
959.17609 1050.8134 1043.3844
959.17621 1051.8601 1043.3829
959.17633 1052.9069 1043.3815
959.17645 1053.9536 1043.3799
959.17657 1055.0002 1043.3784
959.17657 1056.047 1043.3784
959.17657 1057.0938 1043.3784
959.17657 1058.1405 1043.3784
959.17657 1059.1873 1043.3784
959.17657 1060.234 1043.3784
959.17657 1061.2808 1043.3784
959.17657 1062.3275 1043.3784
959.17657 1063.3743 1043.3784
959.17657 1064.421 1043.3784
959.17657 1065.4678 1043.3784
959.17657 1066.5145 1043.3784
959.17657 1067.5613 1043.3784
959.17657 1068.608 1043.3784
959.17657 1069.6548 1043.3784
959.17657 1070.7017 1043.3784
959.17657 1071.7483 1043.3784
959.17657 1072.795 1043.3784
959.17657 1073.8418 1043.3784
959.17657 1074.8887 1043.3784
959.17657 1075.9353 1043.3784
959.17657 1076.9822 1043.3784
959.17657 1078.0289 1043.3784
959.17657 1079.0757 1043.3784
959.17657 1080.1224 1043.3784
959.17657 1081.1691 1043.3784
959.17657 1082.2159 1043.3784
959.17657 1083.2627 1043.3784
959.17657 1084.3094 1043.3784
959.17657 1085.3562 1043.3783
959.17657 1086.403 1043.3784
959.17657 1087.4497 1043.3784
959.17657 1088.4965 1043.3784
959.17657 1089.5432 1043.3784
959.17657 1090.59 1043.3784
959.17657 1091.6367 1043.3784
959.17657 1092.6835 1043.3784
959.17657 1093.7302 1043.3784
959.17657 1094.777 1043.3784
959.17657 1095.8237 1043.3784
959.17657 1096.8705 1043.3784
959.17657 1097.9172 1043.3784
959.17657 1098.964 1043.3784
959.17657 1100.0107 1043.3784
959.17657 1101.0575 1043.3784
959.17657 1102.1042 1043.3784
959.17657 1103.151 1043.3784
959.17657 1104.1978 1043.3784
959.17657 1105.2445 1043.3784
959.17657 1106.2913 1043.3784
959.17657 1107.338 1043.3784
959.17657 1108.3848 1043.3784
959.17657 1109.4315 1043.3784
959.17657 1110.4783 1043.3784
959.17657 1111.525 1043.3784
959.17657 1112.5718 1043.3784
959.17657 1113.6185 1043.3784
959.17657 1114.6653 1043.3784
959.17657 1115.712 1043.3784
959.17657 1116.7588 1043.3784
959.17657 1117.8055 1043.3784
959.17657 1118.8523 1043.3784
959.17657 1119.899 1043.3784
959.17657 1120.9458 1043.3784
959.17657 1121.9926 1043.3784
959.17657 1123.0393 1043.3784
959.17657 1124.0862 1043.3784
959.17657 1125.1328 1043.3784
959.17657 1126.1796 1043.3784
959.17657 1127.2263 1043.3784
959.17657 1128.2731 1043.3784
959.17657 1129.3198 1043.3784
959.17657 1130.3666 1043.3784
959.17651 1131.4133 1043.3784
959.17651 1132.4602 1043.3784
959.17651 1133.5068 1043.3784
959.17651 1134.5536 1043.3784
959.17651 1135.6003 1043.3784
959.17651 1136.6472 1043.3784
959.17651 1137.6938 1043.3784
959.17651 1138.7407 1043.3784
959.17651 1139.7875 1043.3784
959.17651 1140.8342 1043.3784
959.17651 1141.881 1043.3784
959.17651 1142.9277 1043.3784
959.17651 1143.9745 1043.3784
959.17651 1145.0212 1043.3784
959.17651 1146.068 1043.3784
959.17651 1147.1147 1043.3784
959.17651 1148.1615 1043.3784
959.17651 1149.2083 1043.3784
959.17651 1150.255 1043.3784
959.17651 1151.3018 1043.3784
959.17651 1152.3485 1043.3784
959.17651 1153.3953 1043.3784
959.17651 1154.442 1043.3784
959.17651 1155.4888 1043.3784
959.17651 1156.5355 1043.3784
959.17651 1157.5823 1043.3784
959.17651 1158.629 1043.3784
959.17651 1159.6758 1043.3784
959.17651 1160.7225 1043.3784
959.17651 1161.7693 1043.3784
959.17651 1162.816 1043.3784
959.17651 1163.8628 1043.3784
959.17651 1164.9095 1043.3784
959.17651 1165.9563 1043.3784
959.17651 1167.0031 1043.3784
959.17651 1168.0498 1043.3784
959.17651 1169.0966 1043.3784
959.17651 1170.1433 1043.3784
959.17651 1171.1901 1043.3784
959.17651 1172.2368 1043.3784
959.17651 1173.2836 1043.3784
959.17651 1174.3303 1043.3784
959.17651 1175.3771 1043.3784
959.17651 1176.4238 1043.3784
959.17651 1177.4706 1043.3784
959.17651 1178.5175 1043.3784
960.07825 942.48865 1019.0231
959.92999 943.13086 1020.876
959.78271 943.78284 1022.7172
959.65991 944.49963 1024.2522
959.53632 945.22089 1025.7968
959.41199 945.94653 1027.3508
959.29657 946.69867 1028.7935
959.19208 947.48108 1030.1001
959.08704 948.26752 1031.4133
958.98138 949.05798 1032.7334
958.88263 949.86859 1033.9683
958.79333 950.70453 1035.0844
958.70361 951.54413 1036.2054
958.61359 952.38739 1037.3313
958.52344 953.23511 1038.4578
958.44727 954.11572 1039.4105
958.37073 954.99963 1040.3667
958.29395 955.88684 1041.3264
958.21692 956.77734 1042.2897
958.14331 957.67841 1043.2095
958.07843 958.59985 1044.0208
958.01331 959.52423 1044.8346
957.948 960.45142 1045.6509
957.88251 961.38153 1046.4698
957.82019 962.32074 1047.2488
957.76569 963.27722 1047.9294
957.71112 964.23621 1048.6118
957.65637 965.19763 1049.2959
957.6015 966.16156 1049.9818
957.54718 967.12909 1050.6614
957.50244 968.11554 1051.22
957.4577 969.10413 1051.7798
957.41278 970.09473 1052.3408
957.3678 971.0874 1052.9031
957.32275 972.08228 1053.4664
957.28387 973.08893 1053.9528
957.24841 974.10272 1054.3959
957.21289 975.11823 1054.8398
957.17731 976.13544 1055.2845
957.14166 977.15436 1055.73
957.10669 978.1759 1056.1675
957.0802 979.21124 1056.4983
957.05371 980.2478 1056.8295
957.02722 981.28564 1057.161
957.00061 982.32477 1057.493
956.97406 983.36517 1057.8254
956.95111 984.41162 1058.1119
956.93347 985.46576 1058.3323
956.91583 986.52081 1058.5527
956.89819 987.57678 1058.7734
956.88055 988.63354 1058.9941
956.86285 989.69122 1059.2153
956.8512 990.75653 1059.3607
956.84235 991.8255 1059.4713
956.8335 992.89496 1059.5819
956.82465 993.96484 1059.6925
956.8158 995.03516 1059.8032
956.80695 996.1059 1059.9139
956.80432 997.18317 1059.9465
956.80212 998.26093 1059.9742
956.80023 999.33917 1059.9978
956.80249 1000.4211 1059.97
956.80469 1001.5031 1059.9421
956.80792 1002.5857 1059.902
956.81464 1003.671 1059.8179
956.82275 1004.7571 1059.7162
956.83392 1005.8452 1059.5769
956.84436 1006.9322 1059.4465
956.85333 1008.0176 1059.3342
956.86621 1009.1052 1059.1736
956.88208 1010.1943 1058.9752
956.90063 1011.2843 1058.7433
956.92108 1012.3746 1058.4877
956.94031 1013.4631 1058.2468
956.95856 1014.5501 1058.0192
956.98395 1015.6401 1057.7017
957.00928 1016.7288 1057.3845
957.03925 1017.8185 1057.01
957.06934 1018.9069 1056.6338
957.09747 1019.9928 1056.2822
957.12976 1021.0791 1055.8787
957.1651 1022.165 1055.437
957.20294 1023.2501 1054.9639
957.24341 1024.3341 1054.4586
957.28296 1025.4159 1053.964
957.32379 1026.4961 1053.4535
957.36975 1027.5756 1052.8794
957.41687 1028.6532 1052.2902
957.46832 1029.7292 1051.6469
957.51965 1030.8029 1051.005
957.57153 1031.874 1050.3566
957.62903 1032.9432 1049.6379
957.68768 1034.0099 1048.9048
957.75134 1035.0741 1048.1091
957.81482 1036.135 1047.3159
957.88171 1037.193 1046.4796
957.95197 1038.2478 1045.6016
958.02551 1039.299 1044.6816
958.10278 1040.3463 1043.7159
958.18152 1041.3899 1042.7316
958.2041 1042.4336 1042.45
958.2041 1043.4785 1042.45
958.2041 1044.5234 1042.4498
958.2041 1045.5684 1042.45
958.2041 1046.6133 1042.45
958.2041 1047.6581 1042.45
958.2041 1048.703 1042.45
958.2041 1049.7479 1042.4498
958.2041 1050.7928 1042.45
958.2041 1051.8378 1042.45
958.2041 1052.8826 1042.45
958.2041 1053.9275 1042.45
958.2041 1054.9724 1042.4498
958.2041 1056.0173 1042.45
958.2041 1057.0621 1042.45
958.2041 1058.1071 1042.45
958.2041 1059.152 1042.45
958.2041 1060.1969 1042.45
958.2041 1061.2418 1042.45
958.2041 1062.2867 1042.45
958.2041 1063.3315 1042.45
958.2041 1064.3765 1042.45
958.2041 1065.4214 1042.45
958.2041 1066.4663 1042.45
958.2041 1067.5112 1042.45
958.2041 1068.5562 1042.45
958.2041 1069.601 1042.45
958.2041 1070.6459 1042.45
958.2041 1071.6908 1042.45
958.2041 1072.7357 1042.45
958.2041 1073.7805 1042.45
958.2041 1074.8254 1042.45
958.2041 1075.8704 1042.45
958.2041 1076.9153 1042.45
958.2041 1077.9602 1042.45
958.2041 1079.005 1042.45
958.2041 1080.0499 1042.45
958.2041 1081.0948 1042.45
958.2041 1082.1398 1042.45
958.2041 1083.1847 1042.45
958.2041 1084.2295 1042.45
958.2041 1085.2744 1042.45
958.2041 1086.3193 1042.45
958.2041 1087.3643 1042.45
958.2041 1088.4092 1042.45
958.2041 1089.4541 1042.45
958.2041 1090.499 1042.45
958.2041 1091.5438 1042.45
958.2041 1092.5887 1042.45
958.2041 1093.6337 1042.45
958.2041 1094.6785 1042.45
958.2041 1095.7234 1042.45
958.2041 1096.7683 1042.45
958.2041 1097.8132 1042.45
958.2041 1098.8582 1042.45
958.2041 1099.9031 1042.45
958.2041 1100.948 1042.45
958.2041 1101.9928 1042.45
958.2041 1103.0377 1042.45
958.2041 1104.0826 1042.45
958.2041 1105.1276 1042.45
958.2041 1106.1725 1042.45
958.2041 1107.2173 1042.45
958.2041 1108.2622 1042.45
958.2041 1109.3071 1042.45
958.2041 1110.3521 1042.45
958.2041 1111.3969 1042.45
958.2041 1112.4418 1042.45
958.2041 1113.4867 1042.45
958.2041 1114.5316 1042.45
958.2041 1115.5765 1042.45
958.2041 1116.6213 1042.45
958.2041 1117.6663 1042.45
958.2041 1118.7112 1042.45
958.2041 1119.7561 1042.45
958.2041 1120.801 1042.45
958.2041 1121.8459 1042.45
958.2041 1122.8907 1042.45
958.2041 1123.9357 1042.45
958.2041 1124.9806 1042.45
958.2041 1126.0255 1042.45
958.2041 1127.0703 1042.45
958.2041 1128.1152 1042.45
958.2041 1129.1602 1042.45
958.2041 1130.2051 1042.45
958.20404 1131.25 1042.45
958.20404 1132.2949 1042.45
958.20404 1133.3398 1042.45
958.20404 1134.3846 1042.45
958.20404 1135.4296 1042.45
958.20404 1136.4745 1042.45
958.20404 1137.5194 1042.45
958.20404 1138.5642 1042.45
958.20404 1139.6091 1042.45
958.20404 1140.6541 1042.45
958.20404 1141.699 1042.45
958.20404 1142.7439 1042.45
958.20404 1143.7888 1042.45
958.20404 1144.8336 1042.45
958.20404 1145.8785 1042.45
958.20404 1146.9235 1042.45
958.20416 1147.9681 1042.449
958.20428 1149.0127 1042.4474
958.20441 1150.0573 1042.4457
958.20453 1151.1018 1042.4441
958.20465 1152.1462 1042.4424
958.20483 1153.1908 1042.4408
958.20496 1154.2354 1042.4391
958.20508 1155.2799 1042.4375
958.2052 1156.3243 1042.4358
958.20532 1157.3689 1042.4341
958.20544 1158.4133 1042.4325
958.20557 1159.4579 1042.4309
958.20575 1160.5023 1042.4292
958.20587 1161.5468 1042.4275
958.20599 1162.5913 1042.4259
958.20605 1163.6359 1042.4249
958.20605 1164.6807 1042.4249
958.20605 1165.7256 1042.4249
958.20605 1166.7704 1042.4249
958.20605 1167.8153 1042.4249
958.20605 1168.8601 1042.4249
958.20605 1169.9049 1042.4249
958.20605 1170.9498 1042.4249
958.20605 1171.9946 1042.4249
958.20605 1173.0396 1042.4249
958.20605 1174.0844 1042.4249
958.20605 1175.1292 1042.4249
958.20605 1176.1741 1042.4249
958.20605 1177.2189 1042.4249
958.20605 1178.2638 1042.4249
959.0802 942.48865 1019.0231
958.92822 943.13086 1020.876
958.77728 943.78284 1022.7172
958.65137 944.49963 1024.2522
958.52472 945.22089 1025.7968
958.39734 945.94653 1027.3508
958.27899 946.69867 1028.7935
958.17188 947.48108 1030.1001
958.06421 948.26752 1031.4133
957.95593 949.05798 1032.7334
957.85468 949.86859 1033.9683
957.76318 950.70453 1035.0844
957.6712 951.54413 1036.2054
957.57892 952.38739 1037.3313
957.48651 953.23511 1038.4578
957.40845 954.11572 1039.4105
957.33002 954.99963 1040.3667
957.25134 955.88684 1041.3264
957.1723 956.77734 1042.2897
957.09692 957.67841 1043.2095
957.0304 958.59985 1044.0208
956.96362 959.52423 1044.8346
956.89667 960.45142 1045.6509
956.82953 961.38153 1046.4698
956.76569 962.32074 1047.2488
956.70984 963.27722 1047.9294
956.65393 964.23621 1048.6118
956.59778 965.19763 1049.2959
956.54156 966.16156 1049.9818
956.48584 967.12909 1050.6614
956.44 968.11554 1051.22
956.3941 969.10413 1051.7798
956.34814 970.09473 1052.3408
956.302 971.0874 1052.9031
956.2558 972.08228 1053.4664
956.21594 973.08893 1053.9528
956.17963 974.10272 1054.3959
956.14319 975.11823 1054.8398
956.10675 976.13544 1055.2845
956.07019 977.15436 1055.73
956.03436 978.1759 1056.1675
956.0072 979.21124 1056.4983
955.98004 980.2478 1056.8295
955.95288 981.28564 1057.161
955.92566 982.32477 1057.493
955.89838 983.36517 1057.8254
955.87488 984.41162 1058.1119
955.85681 985.46576 1058.3323
955.83875 986.52081 1058.5527
955.82068 987.57678 1058.7734
955.80255 988.63354 1058.9941
955.78442 989.69122 1059.2153
955.77246 990.75653 1059.3607
955.76343 991.8255 1059.4713
955.75433 992.89496 1059.5819
955.7453 993.96484 1059.6925
955.73621 995.03516 1059.8032
955.72711 996.1059 1059.9139
955.72449 997.18317 1059.9465
955.72217 998.26093 1059.9742
955.72028 999.33917 1059.9978
955.72253 1000.4211 1059.97
955.72479 1001.5031 1059.9421
955.72809 1002.5857 1059.902
955.73499 1003.671 1059.8179
955.74347 1004.7573 1059.7146
955.75488 1005.8453 1059.5753
955.76544 1006.9322 1059.4465
955.77466 1008.0176 1059.3342
955.78784 1009.1052 1059.1736
955.80408 1010.1943 1058.9752
955.82324 1011.2844 1058.7417
955.84424 1012.3746 1058.4861
955.86383 1013.4631 1058.2468
955.88251 1014.5501 1058.0192
955.90851 1015.6401 1057.7017
955.93457 1016.7288 1057.3845
955.96539 1017.8186 1057.0083
955.99622 1018.9069 1056.6321
956.0249 1019.9928 1056.2822
956.05804 1021.0791 1055.8787
956.09424 1022.165 1055.437
956.13318 1023.2501 1054.9619
956.17462 1024.3342 1054.4567
956.21503 1025.4159 1053.964
956.2569 1026.4961 1053.4535
956.30396 1027.5756 1052.8794
956.35248 1028.6532 1052.2881
956.40521 1029.7294 1051.6447
956.45764 1030.8029 1051.0049
956.51086 1031.874 1050.3566
956.56976 1032.9432 1049.6379
956.63007 1034.0099 1048.9023
956.69531 1035.0741 1048.1067
956.76025 1036.135 1047.3145
956.82874 1037.193 1046.4796
956.90076 1038.2478 1045.6016
956.97638 1039.299 1044.679
957.0556 1040.3463 1043.7131
957.13611 1041.3899 1042.7316
957.22333 1042.429 1041.6674
957.2403 1043.4706 1041.4611
957.24023 1044.5135 1041.4609
957.24023 1045.5564 1041.4609
957.24023 1046.5994 1041.4609
957.24023 1047.6423 1041.4609
957.24023 1048.6852 1041.4611
957.24023 1049.7281 1041.4609
957.24023 1050.771 1041.4609
957.24023 1051.814 1041.4609
957.24023 1052.8569 1041.4609
957.24023 1053.8999 1041.4611
957.24023 1054.9427 1041.4609
957.24023 1055.9856 1041.4609
957.24023 1057.0286 1041.4609
957.24023 1058.0715 1041.4609
957.24023 1059.1144 1041.4609
957.24023 1060.1573 1041.4609
957.24023 1061.2003 1041.4609
957.24023 1062.2432 1041.4609
957.24023 1063.2861 1041.4609
957.24023 1064.329 1041.4609
957.24023 1065.3719 1041.4609
957.24023 1066.4149 1041.4609
957.24023 1067.4578 1041.4611
957.24023 1068.5007 1041.4611
957.24023 1069.5436 1041.4609
957.24023 1070.5865 1041.4609
957.24023 1071.6294 1041.4609
957.24023 1072.6724 1041.4611
957.24023 1073.7153 1041.4609
957.24023 1074.7582 1041.4609
957.24023 1075.8011 1041.4609
957.24023 1076.8441 1041.4609
957.24023 1077.887 1041.4609
957.24023 1078.9299 1041.4611
957.24023 1079.9728 1041.4609
957.24023 1081.0157 1041.4611
957.24023 1082.0586 1041.4609
957.24023 1083.1016 1041.4609
957.24023 1084.1445 1041.4609
957.24023 1085.1875 1041.4609
957.24023 1086.2303 1041.4611
957.24036 1087.2732 1041.46
957.24048 1088.3159 1041.4583
957.2406 1089.3586 1041.4567
957.24078 1090.4015 1041.4551
957.24091 1091.4442 1041.4534
957.24103 1092.4869 1041.4518
957.24115 1093.5297 1041.4501
957.24127 1094.5724 1041.4484
957.24146 1095.6151 1041.4468
957.24158 1096.6578 1041.4452
957.2417 1097.7006 1041.4435
957.24182 1098.7432 1041.4419
957.24194 1099.7859 1041.4402
957.24213 1100.8286 1041.4386
957.24225 1101.8713 1041.437
957.24237 1102.9139 1041.4353
957.24249 1103.9567 1041.4336
957.24268 1104.9993 1041.432
957.2428 1106.0419 1041.4304
957.24292 1107.0846 1041.4287
957.24304 1108.1272 1041.427
957.24316 1109.1698 1041.4254
957.24329 1110.2124 1041.4238
957.24347 1111.2551 1041.4221
957.24359 1112.2977 1041.4205
957.24371 1113.3403 1041.4188
957.24384 1114.3829 1041.4172
957.24402 1115.4255 1041.4155
957.24414 1116.468 1041.4139
957.24426 1117.5106 1041.4122
957.24438 1118.5532 1041.4106
957.24451 1119.5958 1041.4089
957.24469 1120.6383 1041.4073
957.24481 1121.6809 1041.4056
957.24493 1122.7235 1041.4041
957.24506 1123.766 1041.4023
957.24518 1124.8085 1041.4008
957.24536 1125.8511 1041.3992
957.24548 1126.8936 1041.3975
957.24561 1127.936 1041.3959
957.24573 1128.9786 1041.3942
957.24585 1130.0211 1041.3926
957.24603 1131.0636 1041.3909
957.24615 1132.1061 1041.3893
957.24622 1133.1487 1041.3884
957.24622 1134.1915 1041.3885
957.24622 1135.2343 1041.3884
957.24622 1136.2771 1041.3885
957.24622 1137.3198 1041.3885
957.24622 1138.3625 1041.3885
957.24622 1139.4054 1041.3885
957.24622 1140.4481 1041.3885
957.24622 1141.491 1041.3885
957.24622 1142.5337 1041.3885
957.24622 1143.5764 1041.3884
957.24622 1144.6193 1041.3884
957.24622 1145.662 1041.3885
957.24622 1146.7048 1041.3884
957.24622 1147.7476 1041.3885
957.24622 1148.7903 1041.3885
957.24622 1149.8331 1041.3885
957.24622 1150.8759 1041.3885
957.24622 1151.9187 1041.3885
957.24622 1152.9614 1041.3885
957.24622 1154.0043 1041.3885
957.24622 1155.047 1041.3885
957.24622 1156.0897 1041.3884
957.24622 1157.1326 1041.3885
957.24622 1158.1753 1041.3884
957.24622 1159.2181 1041.3885
957.24622 1160.2609 1041.3885
957.24622 1161.3037 1041.3885
957.24622 1162.3464 1041.3884
957.24622 1163.3892 1041.3885
957.24622 1164.432 1041.3885
957.24622 1165.4747 1041.3885
957.24622 1166.5176 1041.3885
957.24622 1167.5603 1041.3885
957.24622 1168.603 1041.3885
957.24622 1169.6459 1041.3884
957.24622 1170.6886 1041.3884
957.24622 1171.7314 1041.3884
957.24622 1172.7742 1041.3884
957.24622 1173.8169 1041.3884
957.24622 1174.8597 1041.3885
957.24622 1175.9025 1041.3884
957.24622 1176.9453 1041.3885
957.24622 1177.988 1041.3884
957.24622 1179.0309 1041.3885
958.08215 942.48865 1019.0231
957.92651 943.13086 1020.876
957.77185 943.78284 1022.7172
957.64288 944.49963 1024.2522
957.51312 945.22089 1025.7968
957.38263 945.94653 1027.3508
957.26141 946.69867 1028.7935
957.15167 947.48108 1030.1001
957.04138 948.26752 1031.4133
956.93048 949.05798 1032.7334
956.82672 949.86859 1033.9683
956.73297 950.70453 1035.0844
956.63879 951.54413 1036.2054
956.54425 952.38739 1037.3313
956.44965 953.23511 1038.4578
956.36963 954.11572 1039.4105
956.28931 954.99963 1040.3667
956.20868 955.88684 1041.3264
956.12775 956.77728 1042.2897
956.05048 957.67841 1043.2095
955.9823 958.59985 1044.0208
955.91394 959.52423 1044.8346
955.8454 960.45142 1045.6509
955.77661 961.38153 1046.4698
955.71118 962.32074 1047.2488
955.65399 963.27722 1047.9294
955.59668 964.23621 1048.6118
955.53918 965.19763 1049.2959
955.48157 966.16156 1049.9818
955.4245 967.12909 1050.6614
955.37756 968.11554 1051.22
955.33057 969.10413 1051.7798
955.28345 970.09473 1052.3408
955.23621 971.0874 1052.9031
955.1889 972.08228 1053.4664
955.14807 973.08893 1053.9528
955.11084 974.10272 1054.3959
955.07355 975.11823 1054.8398
955.03619 976.13544 1055.2845
954.99878 977.15436 1055.73
954.96204 978.1759 1056.1675
954.9342 979.21124 1056.4983
954.90637 980.2478 1056.8295
954.87854 981.28564 1057.161
954.85065 982.32477 1057.493
954.82275 983.36517 1057.8254
954.79871 984.41162 1058.1119
954.78015 985.46576 1058.3323
954.76166 986.52081 1058.5527
954.7431 987.57678 1058.7734
954.72455 988.63354 1058.9941
954.70599 989.69122 1059.2153
954.69379 990.75653 1059.3607
954.68451 991.8255 1059.4713
954.67517 992.89496 1059.5819
954.66589 993.96484 1059.6925
954.65662 995.03516 1059.8032
954.64728 996.1059 1059.9139
954.64459 997.18317 1059.9465
954.64221 998.26093 1059.9742
954.64026 999.33917 1059.9978
954.64258 1000.4211 1059.97
954.64496 1001.5031 1059.9421
954.64832 1002.5857 1059.902
954.6554 1003.671 1059.8179
954.66418 1004.7573 1059.7131
954.67584 1005.8454 1059.574
954.68658 1006.9322 1059.4465
954.69598 1008.0176 1059.3342
954.70947 1009.1052 1059.1736
954.72614 1010.1943 1058.9752
954.74591 1011.2845 1058.7401
954.7674 1012.3748 1058.4845
954.78735 1013.4631 1058.2468
954.80646 1014.5501 1058.0192
954.83313 1015.6401 1057.7017
954.85986 1016.7289 1057.3832
954.89154 1017.8187 1057.0065
954.92316 1018.907 1056.6304
954.95239 1019.9928 1056.2822
954.98627 1021.0791 1055.8787
955.02338 1022.165 1055.437
955.06342 1023.2502 1054.9601
955.1059 1024.3342 1054.4548
955.14709 1025.4159 1053.964
955.19 1026.4961 1053.4535
955.23822 1027.5756 1052.8794
955.28809 1028.6532 1052.2859
955.3421 1029.7294 1051.6426
955.39563 1030.8029 1051.0049
955.45013 1031.874 1050.3566
955.5105 1032.9432 1049.6379
955.57251 1034.0099 1048.8999
955.63928 1035.0741 1048.1042
955.70569 1036.135 1047.3145
955.77576 1037.193 1046.4796
955.84955 1038.2477 1045.6016
955.92725 1039.299 1044.6761
956.00842 1040.3463 1043.7103
956.09064 1041.3899 1042.7316
956.17999 1042.429 1041.6674
956.27045 1043.4636 1040.5907
956.28253 1044.5034 1040.4468
956.28265 1045.5442 1040.4451
956.28284 1046.5851 1040.4435
956.28296 1047.626 1040.4419
956.28308 1048.6669 1040.4402
956.2832 1049.7076 1040.4386
956.28339 1050.7485 1040.437
956.28351 1051.7893 1040.4353
956.28363 1052.8302 1040.4337
956.28375 1053.871 1040.432
956.28394 1054.9117 1040.4304
956.28406 1055.9526 1040.4288
956.28418 1056.9934 1040.4271
956.2843 1058.0342 1040.4255
956.28448 1059.075 1040.4238
956.28461 1060.1158 1040.4222
956.28473 1061.1565 1040.4207
956.28491 1062.1974 1040.4189
956.28503 1063.2382 1040.4174
956.28516 1064.2788 1040.4156
956.28528 1065.3196 1040.4141
956.2854 1066.3604 1040.4124
956.28558 1067.4011 1040.4108
956.28571 1068.4418 1040.4092
956.28583 1069.4825 1040.4075
956.28595 1070.5232 1040.4059
956.28613 1071.564 1040.4042
956.28625 1072.6046 1040.4026
956.28638 1073.6454 1040.401
956.2865 1074.686 1040.3993
956.28668 1075.7267 1040.3977
956.2868 1076.7673 1040.396
956.28693 1077.8081 1040.3944
956.28711 1078.8488 1040.3927
956.28723 1079.8894 1040.3911
956.28735 1080.9301 1040.3894
956.28748 1081.9707 1040.3878
956.2876 1083.0114 1040.3862
956.28778 1084.0519 1040.3845
956.2879 1085.0925 1040.3829
956.28802 1086.1332 1040.3812
956.28821 1087.1738 1040.3796
956.28833 1088.2144 1040.3781
956.28845 1089.255 1040.3763
956.28857 1090.2955 1040.3748
956.28876 1091.3362 1040.373
956.28888 1092.3767 1040.3715
956.289 1093.4174 1040.3699
956.28912 1094.4579 1040.3682
956.28931 1095.4984 1040.3666
956.28943 1096.5389 1040.3649
956.28955 1097.5796 1040.3633
956.28967 1098.6201 1040.3616
956.28986 1099.6606 1040.36
956.28998 1100.701 1040.3584
956.2901 1101.7417 1040.3567
956.29016 1102.7822 1040.3562
956.29016 1103.823 1040.3562
956.29016 1104.8638 1040.3562
956.29016 1105.9044 1040.3562
956.29016 1106.9452 1040.3562
956.29016 1107.9858 1040.3562
956.29016 1109.0266 1040.3562
956.29016 1110.0673 1040.3562
956.29016 1111.108 1040.3562
956.29016 1112.1487 1040.3562
956.29016 1113.1893 1040.3562
956.29016 1114.2301 1040.3561
956.29016 1115.2709 1040.3562
956.29016 1116.3115 1040.3562
956.29016 1117.3522 1040.3561
956.29016 1118.3929 1040.3562
956.29016 1119.4336 1040.3562
956.29016 1120.4744 1040.3562
956.29016 1121.5151 1040.3562
956.29016 1122.5558 1040.3562
956.29016 1123.5964 1040.3561
956.29016 1124.6372 1040.3561
956.29016 1125.6779 1040.3562
956.29016 1126.7186 1040.3562
956.29016 1127.7594 1040.3562
956.29016 1128.8 1040.3562
956.29016 1129.8408 1040.3562
956.29016 1130.8815 1040.3561
956.29016 1131.9222 1040.3562
956.29016 1132.9629 1040.3562
956.29016 1134.0037 1040.3562
956.29016 1135.0443 1040.3562
956.29016 1136.085 1040.3562
956.29016 1137.1257 1040.3562
956.29016 1138.1665 1040.3562
956.29016 1139.2072 1040.3562
956.29016 1140.2479 1040.3562
956.29016 1141.2886 1040.3562
956.29016 1142.3293 1040.3562
956.29016 1143.37 1040.3562
956.29016 1144.4108 1040.3562
956.29016 1145.4514 1040.3562
956.29016 1146.4922 1040.3562
956.29016 1147.5328 1040.3562
956.29016 1148.5735 1040.3561
956.29016 1149.6143 1040.3562
956.29016 1150.655 1040.3562
956.29016 1151.6957 1040.3562
956.29016 1152.7365 1040.3562
956.29016 1153.7771 1040.3561
956.29016 1154.8177 1040.3561
956.29016 1155.8585 1040.3562
956.29016 1156.8993 1040.3562
956.29016 1157.9399 1040.3562
956.29016 1158.9807 1040.3562
956.29016 1160.0214 1040.3562
956.29016 1161.062 1040.3562
956.29016 1162.1028 1040.3562
956.29016 1163.1436 1040.3562
956.29016 1164.1842 1040.3562
956.29016 1165.2249 1040.3561
956.29016 1166.2656 1040.3562
956.29016 1167.3064 1040.3562
956.29016 1168.347 1040.3562
956.29016 1169.3878 1040.3562
956.29016 1170.4285 1040.3562
956.29016 1171.4692 1040.3562
956.29016 1172.5099 1040.3562
956.29016 1173.5507 1040.3562
956.29016 1174.5913 1040.3562
956.29016 1175.6321 1040.3562
956.29016 1176.6727 1040.3562
956.29016 1177.7134 1040.3562
956.29016 1178.7542 1040.3562
957.08411 942.48865 1019.0231
956.92474 943.13086 1020.876
956.76642 943.78284 1022.7172
956.6344 944.49963 1024.2522
956.50159 945.22089 1025.7968
956.36792 945.94653 1027.3508
956.24384 946.69867 1028.7935
956.13147 947.48108 1030.1001
956.01855 948.26752 1031.4133
955.90503 949.05798 1032.7334
955.79883 949.86859 1033.9683
955.70282 950.70453 1035.0844
955.60645 951.54413 1036.2054
955.50958 952.38739 1037.3313
955.41272 953.23505 1038.4578
955.33075 954.11572 1039.4105
955.24854 954.99963 1040.3667
955.16602 955.88684 1041.3264
955.08319 956.77728 1042.2897
955.00409 957.67841 1043.2095
954.93427 958.59985 1044.0208
954.86432 959.52423 1044.8346
954.79407 960.45142 1045.6509
954.72369 961.38153 1046.4698
954.65668 962.32074 1047.2488
954.59814 963.27722 1047.9294
954.53949 964.23621 1048.6118
954.48059 965.19763 1049.2959
954.42163 966.16156 1049.9818
954.36322 967.12909 1050.6614
954.31512 968.11554 1051.22
954.26703 969.10413 1051.7798
954.21875 970.09473 1052.3408
954.17041 971.0874 1052.9031
954.12195 972.08228 1053.4664
954.08014 973.08893 1053.9528
954.04205 974.10272 1054.3959
954.00385 975.11823 1054.8398
953.96558 976.13544 1055.2845
953.92731 977.15436 1055.73
953.88965 978.1759 1056.1675
953.86121 979.21124 1056.4983
953.83276 980.2478 1056.8295
953.8042 981.28564 1057.161
953.7757 982.32477 1057.493
953.74707 983.36517 1057.8254
953.72247 984.41162 1058.1119
953.70349 985.46576 1058.3323
953.68457 986.52081 1058.5527
953.66559 987.57678 1058.7734
953.64655 988.63354 1058.9941
953.62756 989.69122 1059.2153
953.61505 990.75653 1059.3607
953.60553 991.8255 1059.4713
953.59601 992.89496 1059.5819
953.58655 993.96484 1059.6925
953.57703 995.03516 1059.8032
953.5675 996.1059 1059.9139
953.5647 997.18317 1059.9465
953.56232 998.26093 1059.9742
953.56024 999.33917 1059.9978
953.56268 1000.4211 1059.97
953.56506 1001.5031 1059.9421
953.56848 1002.5857 1059.902
953.57574 1003.671 1059.8179
953.5849 1004.7574 1059.7117
953.59686 1005.8455 1059.5724
953.60767 1006.9322 1059.4465
953.61731 1008.0176 1059.3342
953.63116 1009.1052 1059.1736
953.64819 1010.1943 1058.9752
953.66858 1011.2846 1058.7385
953.69055 1012.3748 1058.4829
953.71082 1013.4631 1058.2468
953.73041 1014.5501 1058.0192
953.75775 1015.6401 1057.7017
953.78528 1016.7289 1057.3815
953.81769 1017.8188 1057.0048
953.85004 1018.907 1056.6287
953.87982 1019.9928 1056.2822
953.91449 1021.0791 1055.8787
953.95251 1022.165 1055.437
953.99365 1023.2502 1054.9581
954.03711 1024.3342 1054.4529
954.07916 1025.4159 1053.964
954.12305 1026.4961 1053.4535
954.17242 1027.5756 1052.8794
954.22369 1028.6533 1052.2837
954.27899 1029.7294 1051.6404
954.33368 1030.8029 1051.0049
954.3894 1031.874 1050.3566
954.45123 1032.9432 1049.6379
954.51489 1034.01 1048.8975
954.58331 1035.0741 1048.1019
954.651 1036.135 1047.3145
954.72284 1037.193 1046.4796
954.79834 1038.2477 1045.6016
954.87817 1039.299 1044.6733
954.96124 1040.3463 1043.7076
955.04517 1041.3899 1042.7316
955.13666 1042.429 1041.6674
955.22955 1043.4636 1040.5875
955.32996 1044.4932 1039.4197
955.33435 1045.5314 1039.369
955.33447 1046.5701 1039.3674
955.33459 1047.6088 1039.3657
955.33478 1048.6475 1039.3641
955.3349 1049.6862 1039.3625
955.33502 1050.7249 1039.361
955.33521 1051.7635 1039.3593
955.33533 1052.8022 1039.3577
955.33545 1053.8409 1039.356
955.33557 1054.8795 1039.3544
955.33575 1055.9182 1039.3527
955.33588 1056.9568 1039.3511
955.336 1057.9955 1039.3495
955.33618 1059.0342 1039.3479
955.3363 1060.0728 1039.3462
955.33643 1061.1113 1039.3446
955.33655 1062.15 1039.3429
955.33673 1063.1886 1039.3413
955.33685 1064.2272 1039.3397
955.33698 1065.2659 1039.3381
955.33716 1066.3044 1039.3364
955.33728 1067.343 1039.3347
955.3374 1068.3816 1039.3331
955.33759 1069.4202 1039.3315
955.33771 1070.4586 1039.3298
955.33783 1071.4973 1039.3282
955.33789 1072.5359 1039.3279
955.33789 1073.5745 1039.3279
955.33789 1074.6132 1039.3279
955.33789 1075.6519 1039.3279
955.33789 1076.6904 1039.3279
955.33789 1077.7291 1039.3279
955.33789 1078.7678 1039.3279
955.33789 1079.8064 1039.3279
955.33789 1080.8451 1039.3279
955.33789 1081.8838 1039.3279
955.33789 1082.9224 1039.3279
955.33789 1083.9611 1039.3279
955.33789 1084.9998 1039.3279
955.33789 1086.0383 1039.3279
955.33789 1087.077 1039.3279
955.33789 1088.1157 1039.3279
955.33789 1089.1543 1039.3279
955.33789 1090.193 1039.3279
955.33789 1091.2317 1039.3279
955.33789 1092.2703 1039.3279
955.33789 1093.309 1039.3279
955.33789 1094.3477 1039.3279
955.33789 1095.3862 1039.3279
955.33789 1096.4249 1039.3279
955.33789 1097.4636 1039.3279
955.33789 1098.5022 1039.3279
955.33789 1099.5409 1039.3279
955.33789 1100.5796 1039.3279
955.33789 1101.6182 1039.3279
955.33789 1102.6569 1039.3279
955.33789 1103.6954 1039.3279
955.33789 1104.7341 1039.3279
955.33789 1105.7728 1039.3279
955.33789 1106.8114 1039.3279
955.33789 1107.8501 1039.3279
955.33789 1108.8888 1039.3279
955.33789 1109.9274 1039.3279
955.33789 1110.9661 1039.3279
955.33789 1112.0048 1039.3279
955.33789 1113.0433 1039.3279
955.33789 1114.082 1039.3279
955.33789 1115.1207 1039.3279
955.33789 1116.1593 1039.3279
955.33789 1117.198 1039.3279
955.33789 1118.2366 1039.3279
955.33789 1119.2753 1039.3279
955.33789 1120.314 1039.3279
955.33789 1121.3527 1039.3279
955.33789 1122.3912 1039.3279
955.33789 1123.4299 1039.3279
955.33789 1124.4686 1039.3279
955.33789 1125.5072 1039.3279
955.33789 1126.5459 1039.3279
955.33789 1127.5845 1039.3279
955.33789 1128.6232 1039.3279
955.33789 1129.6619 1039.3279
955.33789 1130.7004 1039.3279
955.33789 1131.7391 1039.3279
955.33789 1132.7778 1039.3279
955.33789 1133.8164 1039.3279
955.33789 1134.8551 1039.3279
955.33789 1135.8938 1039.3279
955.33789 1136.9324 1039.3279
955.33789 1137.9711 1039.3279
955.33789 1139.0098 1039.3279
955.33789 1140.0483 1039.3279
955.33789 1141.087 1039.3279
955.33789 1142.1257 1039.3279
955.33789 1143.1643 1039.3279
955.33789 1144.203 1039.3279
955.33789 1145.2417 1039.3279
955.33789 1146.2803 1039.3279
955.33789 1147.319 1039.3279
955.33789 1148.3577 1039.3279
955.33789 1149.3962 1039.3279
955.33789 1150.4349 1039.3279
955.33789 1151.4736 1039.3279
955.33789 1152.5122 1039.3279
955.33789 1153.5509 1039.3279
955.33789 1154.5896 1039.3279
955.33789 1155.6282 1039.3279
955.33789 1156.6669 1039.3279
955.33789 1157.7056 1039.3279
955.33789 1158.7441 1039.3279
955.33789 1159.7828 1039.3279
955.33789 1160.8215 1039.3279
955.33789 1161.8601 1039.3279
955.33789 1162.8988 1039.3279
955.33789 1163.9375 1039.3279
955.33789 1164.9761 1039.3279
955.33789 1166.0148 1039.3279
955.33789 1167.0533 1039.3279
955.33789 1168.092 1039.3279
955.33789 1169.1307 1039.3279
955.33789 1170.1693 1039.3279
955.33789 1171.208 1039.328
955.33789 1172.2467 1039.3279
955.33789 1173.2854 1039.3279
955.33789 1174.324 1039.3279
955.33789 1175.3627 1039.3279
955.33789 1176.4012 1039.3279
955.33789 1177.4399 1039.3279
955.33789 1178.4786 1039.3279
956.08606 942.48859 1019.0231
955.92297 943.13086 1020.876
955.76099 943.78284 1022.7172
