# .PCD v0.7 - Point Cloud Data file format
VERSION 0.7
FIELDS x y z
SIZE 4 4 4
TYPE F F F
COUNT 1 1 1
WIDTH 1527
HEIGHT 1
VIEWPOINT 0 0 0 1 0 0 0
POINTS 1527
DATA ascii
-54.053452 -113.64639 27.35078
-53.301308 -113.96955 28.793468
-52.518921 -114.26223 30.10004
-51.732498 -114.5564 31.413351
-50.942017 -114.8521 32.733433
-50.131432 -115.12872 33.968304
-49.295456 -115.37872 35.084377
-48.455849 -115.62983 36.205372
-47.612587 -115.88203 37.331264
-46.764923 -116.13436 38.457798
-45.884262 -116.34777 39.410461
-45.000351 -116.56195 40.366642
-44.113159 -116.77693 41.326389
-43.222687 -116.99271 42.289639
-42.321609 -117.19873 43.209454
-41.400124 -117.38047 44.020763
-40.475792 -117.56276 44.834538
-39.548569 -117.74563 45.650902
-38.618477 -117.92905 46.46981
-37.679283 -118.10356 47.248821
-36.722786 -118.256 47.929398
-35.763802 -118.40886 48.611801
-34.802391 -118.56212 49.295933
-33.838448 -118.71577 49.981834
-32.870895 -118.86798 50.661381
-31.884438 -118.99311 51.220009
-30.895889 -119.11851 51.779816
-29.905258 -119.24417 52.340847
-28.912567 -119.37009 52.903008
-27.917725 -119.4963 53.466389
-26.911095 -119.60522 53.952702
-25.897278 -119.70451 54.395866
-24.881767 -119.80395 54.839844
-23.864544 -119.90356 55.284492
-22.845627 -120.00333 55.729923
-21.824074 -120.10134 56.167484
-20.788769 -120.17543 56.498241
-19.752216 -120.24961 56.829414
-18.714355 -120.32389 57.161003
-17.675224 -120.39825 57.492985
-16.634827 -120.47271 57.825367
-15.588398 -120.5369 58.111908
-14.534225 -120.58625 58.332203
13.463127 -120.56713 58.246864
14.550108 -120.51606 58.018887
15.641453 -120.43803 57.67062
16.731407 -120.36015 57.322884
17.819942 -120.28234 56.975521
18.907055 -120.20465 56.628647
19.992805 -120.12704 56.282185
21.079754 -120.03217 55.858707
22.166702 -119.92579 55.383747
23.251659 -119.81958 54.909622
24.334726 -119.71358 54.436382
25.415878 -119.60776 53.964005
26.496397 -119.49033 53.439747
27.576721 -119.35352 52.828968
28.654549 -119.21701 52.219555
29.729923 -119.08081 51.611511
30.802879 -118.94493 51.004894
31.874174 -118.79621 50.340965
32.94397 -118.62598 49.5811
34.010689 -118.45626 48.823391
35.074394 -118.28701 48.067829
36.135059 -118.11827 47.314434
37.193138 -117.92435 46.448765
38.247875 -117.71699 45.523067
39.298927 -117.51036 44.600574
40.346298 -117.30445 43.681362
41.389809 -117.08881 42.718758
42.428528 -116.83768 41.597641
43.462757 -116.58762 40.481274
44.492622 -116.33864 39.369751
45.517677 -116.08311 38.229023
46.535107 -115.77894 36.871052
47.547318 -115.47756 35.525589
48.554283 -115.17774 34.187138
49.552917 -114.8448 32.700825
50.542168 -114.47653 31.056761
51.52507 -114.11062 29.423214
52.499081 -113.72448 27.699345
53.457161 -113.26578 25.651567
54.407696 -112.81204 23.626034
55.340736 -112.2925 21.306656
56.254429 -111.70683 18.691996
-57.511383 -110.78294 19.023067
-56.86911 -111.19428 20.87595
-56.217155 -111.60302 22.717146
-55.500351 -111.94382 24.252243
-54.779121 -112.28671 25.796764
-54.053452 -112.63169 27.35078
-53.301308 -112.95197 28.793468
-52.518921 -113.24203 30.10004
-51.732498 -113.53358 31.413351
-50.942017 -113.82664 32.733433
-50.131432 -114.10078 33.968304
-49.295456 -114.34856 35.084377
-48.455849 -114.59741 36.205372
-47.612587 -114.84736 37.331264
-46.764923 -115.09744 38.457798
-45.884262 -115.30894 39.410461
-45.000351 -115.52122 40.366642
-44.113159 -115.73428 41.326389
-43.222687 -115.94812 42.289639
-42.321609 -116.15231 43.209454
-41.400124 -116.33243 44.020763
-40.475792 -116.5131 44.834538
-39.548569 -116.69433 45.650902
-38.618477 -116.87613 46.46981
-37.679283 -117.04906 47.248821
-36.722786 -117.20016 47.929398
-35.763802 -117.35165 48.611801
-34.802391 -117.50352 49.295933
-33.838448 -117.6558 49.981834
-32.870895 -117.80665 50.661381
-31.884438 -117.93066 51.220009
-30.895889 -118.05495 51.779816
-29.905258 -118.17949 52.340847
-28.912567 -118.30429 52.903008
-27.917725 -118.42937 53.466389
-26.911095 -118.53733 53.952702
-25.897278 -118.6357 54.395866
-24.881767 -118.73427 54.839844
-23.864544 -118.83298 55.284492
-22.845627 -118.93185 55.729923
-21.824074 -119.029 56.167484
-20.788769 -119.10244 56.498241
-19.752216 -119.17595 56.829414
-18.714355 -119.24957 57.161003
-17.675224 -119.32327 57.492985
-16.634827 -119.39706 57.825367
-15.588398 -119.46067 58.111908
-14.534225 -119.50957 58.332203
-13.479164 -119.55853 58.55267
-12.423229 -119.60752 58.773384
-11.366447 -119.65654 58.994183
-10.308781 -119.7056 59.215267
-9.2434616 -119.73791 59.360729
-8.174469 -119.76245 59.471268
-7.1050262 -119.78699 59.58189
-6.0351601 -119.81155 59.692509
-4.9648361 -119.83614 59.803162
-3.8941116 -119.86071 59.913891
-2.8168259 -119.86795 59.946476
-1.7390442 -119.8741 59.974239
-0.66082764 -119.87934 59.997826
0.42116547 -119.87316 59.969997
1.5030403 -119.86697 59.942101
2.5860901 -119.8567 59.895828
3.6732788 -119.83174 59.783421
4.7600365 -119.8068 59.67107
5.846344 -119.78186 59.558743
6.9321709 -119.75695 59.446499
8.0175705 -119.73204 59.334267
9.1062031 -119.69268 59.156971
10.196802 -119.6421 58.929161
11.286488 -119.59157 58.701561
12.375271 -119.54108 58.474121
13.463127 -119.49063 58.246864
14.5501 -119.44007 58.019108
15.641453 -119.36271 57.67062
16.731407 -119.28551 57.322884
17.819942 -119.2084 56.975521
18.907055 -119.13139 56.628647
19.992805 -119.05447 56.282185
21.079754 -118.96046 55.858707
22.166702 -118.85501 55.383747
23.251659 -118.74977 54.909622
24.334726 -118.64471 54.436382
25.415878 -118.53984 53.964005
26.496397 -118.42345 53.439747
27.576721 -118.28786 52.828968
28.654549 -118.15257 52.219555
29.729923 -118.01759 51.611511
30.802879 -117.8829 51.004894
31.874174 -117.73553 50.340965
32.94397 -117.56683 49.5811
34.010689 -117.39862 48.823391
35.074394 -117.23088 48.067829
36.135059 -117.06364 47.314434
37.193138 -116.87144 46.448765
38.247875 -116.66594 45.523067
39.298927 -116.46115 44.600574
40.346298 -116.2571 43.681362
41.38982 -116.04371 42.720222
42.428528 -115.79449 41.597641
43.462757 -115.54666 40.481274
44.492622 -115.2999 39.369751
45.517715 -115.0475 38.232803
46.535107 -114.74519 36.871052
47.547318 -114.4465 35.525589
48.554283 -114.14938 34.187138
49.552917 -113.8194 32.700825
50.542168 -113.45442 31.056761
51.52507 -113.09177 29.423214
52.499233 -112.71037 27.705133
53.457161 -112.25447 25.651567
54.407696 -111.8048 23.626034
55.340736 -111.28989 21.306656
56.254429 -110.70945 18.691996
-57.511383 -109.7849 19.023067
-56.86911 -110.19252 20.87595
-56.217155 -110.5976 22.717146
-55.500351 -110.93532 24.252243
-54.779121 -111.27511 25.796764
-54.053452 -111.61699 27.35078
-53.301308 -111.93438 28.793468
-52.518921 -112.22182 30.10004
-51.732498 -112.51076 31.413351
-50.942017 -112.80117 32.733433
-50.131432 -113.07285 33.968304
-49.295456 -113.31839 35.084377
-48.455849 -113.56501 36.205372
-47.612587 -113.8127 37.331264
-46.764923 -114.06054 38.457798
-45.884262 -114.27013 39.410461
-45.000351 -114.48049 40.366642
-44.113159 -114.69163 41.326389
-43.222687 -114.90354 42.289639
-42.321609 -115.1059 43.209454
-41.400124 -115.2844 44.020763
-40.475792 -115.46342 44.834538
-39.548569 -115.64303 45.650902
-38.618477 -115.82318 46.46981
-37.679283 -115.99458 47.248821
-36.722786 -116.14429 47.929398
-35.763802 -116.29442 48.611801
-34.802391 -116.44494 49.295933
-33.838448 -116.59584 49.981834
-32.870895 -116.74533 50.661381
-31.884438 -116.86824 51.220009
-30.895889 -116.99139 51.779816
-29.905258 -117.11481 52.340847
-28.912567 -117.23849 52.903008
-27.917725 -117.36243 53.466389
-26.911095 -117.46942 53.952702
-25.897278 -117.56692 54.395866
-24.881767 -117.6646 54.839844
-23.864544 -117.76242 55.284492
-22.845627 -117.8604 55.729923
-21.824074 -117.95668 56.167484
-20.788769 -118.02943 56.498241
-19.752216 -118.10229 56.829414
-18.714355 -118.17524 57.161003
-17.675224 -118.24828 57.492985
-16.634827 -118.32141 57.825367
-15.588398 -118.38445 58.111908
-14.534225 -118.43291 58.332203
-13.479164 -118.48141 58.55267
-12.423229 -118.52998 58.773384
-11.366447 -118.57856 58.994183
-10.308781 -118.62717 59.215267
-9.2434616 -118.65919 59.360729
-8.174469 -118.68351 59.471268
-7.1050262 -118.70784 59.58189
-6.0351601 -118.73218 59.692509
-4.9648361 -118.75653 59.803162
-3.8941116 -118.78089 59.913891
-2.8168259 -118.78807 59.946476
-1.7390442 -118.79415 59.974239
-0.66082764 -118.79935 59.997826
0.42116547 -118.79322 59.969997
1.5030403 -118.78709 59.942101
2.5860901 -118.77691 59.895828
3.6732788 -118.75217 59.783421
4.7600365 -118.72747 59.67107
5.846344 -118.70275 59.558743
6.9321709 -118.67805 59.446499
8.0175705 -118.65337 59.334267
9.1062031 -118.61436 59.156971
10.196802 -118.56424 58.929161
11.286488 -118.51418 58.701561
12.375271 -118.46413 58.474121
13.463127 -118.41414 58.246864
14.5501 -118.36404 58.019108
15.641453 -118.28737 57.67062
16.731407 -118.21086 57.322884
17.819942 -118.13444 56.975521
18.907055 -118.05813 56.628647
19.992805 -117.98191 56.282185
21.079754 -117.88874 55.858707
22.166702 -117.78426 55.383747
23.251659 -117.67995 54.909622
24.334726 -117.57584 54.436382
25.415878 -117.4719 53.964005
26.496397 -117.35657 53.439747
27.576721 -117.2222 52.828968
28.654549 -117.08813 52.219555
29.729923 -116.95437 51.611511
30.802879 -116.82091 51.004894
31.874174 -116.67485 50.340965
32.94397 -116.50767 49.5811
34.010689 -116.34097 48.823391
35.074394 -116.17475 48.067829
36.135059 -116.00901 47.314434
37.193138 -115.81855 46.448765
38.247875 -115.61491 45.523067
39.298927 -115.41196 44.600574
40.346298 -115.20972 43.681362
41.389828 -114.99899 42.723484
42.428528 -114.7513 41.597641
43.462757 -114.50571 40.481274
44.492622 -114.26116 39.369751
45.517754 -114.0114 38.234432
46.535107 -113.71146 36.871052
47.547318 -113.41545 35.525589
48.554283 -113.12099 34.187138
49.552917 -112.79401 32.700825
50.542168 -112.4323 31.056761
51.52507 -112.07292 29.423214
52.499386 -111.69623 27.710924
53.457161 -111.24316 25.651567
54.407696 -110.79755 23.626034
55.340736 -110.28728 21.306656
56.254429 -109.71206 18.691996
-57.511383 -108.78686 19.023067
-56.86911 -109.19077 20.87595
-56.217155 -109.59216 22.717146
-55.500351 -109.92682 24.252243
-54.779121 -110.26351 25.796764
-54.053452 -110.60229 27.35078
-53.301308 -110.91679 28.793468
-52.518921 -111.20162 30.10004
-51.732498 -111.48793 31.413351
-50.942017 -111.77571 32.733433
-50.131432 -112.04491 33.968304
-49.295456 -112.28822 35.084377
-48.455849 -112.53259 36.205372
-47.612587 -112.77804 37.331264
-46.764923 -113.02361 38.457798
-45.884262 -113.23131 39.410461
-45.000351 -113.43975 40.366642
-44.113159 -113.64897 41.326389
-43.222687 -113.85897 42.289639
-42.321609 -114.05947 43.209454
-41.400124 -114.23635 44.020763
-40.475792 -114.41376 44.834538
-39.548569 -114.59172 45.650902
-38.618477 -114.77025 46.46981
-37.679283 -114.94007 47.248821
-36.722786 -115.08845 47.929398
-35.763802 -115.2372 48.611801
-34.802391 -115.38634 49.295933
-33.838448 -115.53588 49.981834
-32.870895 -115.68401 50.661381
-31.884438 -115.8058 51.220009
-30.895889 -115.92784 51.779816
-29.905258 -116.05013 52.340847
-28.912567 -116.17269 52.903008
-27.917725 -116.29549 53.466389
-26.911095 -116.40152 53.952702
-25.897278 -116.49814 54.395866
-24.881767 -116.59492 54.839844
-23.864544 -116.69185 55.284492
-22.845627 -116.78894 55.729923
-21.824074 -116.88434 56.167484
-20.788769 -116.95645 56.498241
-19.752216 -117.02864 56.829414
-18.714355 -117.10093 57.161003
-17.675224 -117.17329 57.492985
-16.634827 -117.24576 57.825367
-15.588398 -117.30822 58.111908
-14.534225 -117.35625 58.332203
-13.479164 -117.40432 58.55267
-12.423229 -117.45243 58.773384
-11.366447 -117.50056 58.994183
-10.308781 -117.54876 59.215267
-9.2434616 -117.58047 59.360729
-8.174469 -117.60457 59.471268
-7.1050262 -117.62868 59.58189
-6.0351601 -117.65279 59.692509
-4.9648361 -117.67692 59.803162
-3.8941116 -117.70106 59.913891
-2.8168259 -117.70816 59.946476
-1.7390442 -117.71421 59.974239
-0.66082764 -117.71936 59.997826
0.42116547 -117.71329 59.969997
1.5030403 -117.70721 59.942101
2.5860901 -117.69712 59.895828
3.6732788 -117.67261 59.783421
4.7600365 -117.64812 59.67107
5.846344 -117.62363 59.558743
6.9321709 -117.59916 59.446499
8.0175705 -117.57471 59.334267
9.1062031 -117.53605 59.156971
10.196802 -117.48637 58.929161
11.286488 -117.43676 58.701561
12.375271 -117.38718 58.474121
13.463127 -117.33765 58.246864
14.5501 -117.28799 58.019108
15.641453 -117.21203 57.67062
16.731407 -117.13621 57.322884
17.819942 -117.0605 56.975521
18.907055 -116.98488 56.628647
19.992805 -116.90936 56.282185
21.079754 -116.81702 55.858707
22.166702 -116.71349 55.383747
23.251659 -116.61013 54.909622
24.334726 -116.50697 54.436382
25.415878 -116.40398 53.964005
26.496397 -116.2897 53.439747
27.576721 -116.15655 52.828968
28.654549 -116.0237 52.219555
29.729923 -115.89115 51.611511
30.802879 -115.7589 51.004894
31.874174 -115.61417 50.340965
32.94397 -115.44851 49.5811
34.010689 -115.28334 48.823391
35.074394 -115.11861 48.067829
36.135059 -114.95438 47.314434
37.193138 -114.76567 46.448765
38.247875 -114.56386 45.523067
39.298927 -114.36275 44.600574
40.346298 -114.16237 43.681362
41.389832 -113.95425 42.726746
42.428528 -113.70811 41.597641
43.462757 -113.46474 40.481274
44.492622 -113.22243 39.369751
45.517754 -112.97492 38.234432
46.535107 -112.67771 36.871052
47.547318 -112.38441 35.525589
48.554283 -112.09262 34.187138
49.552917 -111.76861 32.700825
50.542168 -111.41019 31.056761
51.52507 -111.05407 29.423214
52.49955 -110.68207 27.716705
53.457161 -110.23187 25.651567
54.407696 -109.79029 23.626034
55.340736 -109.28468 21.306656
56.254429 -108.71468 18.691996
-57.511383 -107.7888 19.023067
-56.86911 -108.18903 20.87595
-56.217155 -108.58673 22.717146
-55.500351 -108.9183 24.252243
-54.779121 -109.25193 25.796764
-54.053452 -109.58759 27.35078
-53.301308 -109.89921 28.793468
-52.518921 -110.18143 30.10004
-51.732498 -110.4651 31.413351
-50.942017 -110.75024 32.733433
-50.131432 -111.01698 33.968304
-49.295456 -111.25805 35.084377
-48.455849 -111.50019 36.205372
-47.612587 -111.74338 37.331264
-46.764923 -111.98671 38.457798
-45.884262 -112.19249 39.410461
-45.000351 -112.39902 40.366642
-44.113159 -112.60632 41.326389
-43.222687 -112.81439 42.289639
-42.321609 -113.01307 43.209454
-41.400124 -113.18831 44.020763
-40.475792 -113.3641 44.834538
-39.548569 -113.54043 45.650902
-38.618477 -113.71731 46.46981
-37.679283 -113.88557 47.248821
-36.722786 -114.03259 47.929398
-35.763802 -114.17998 48.611801
-34.802391 -114.32776 49.295933
-33.838448 -114.47591 49.981834
-32.870895 -114.62269 50.661381
-31.884438 -114.74335 51.220009
-30.895889 -114.86428 51.779816
-29.905258 -114.98545 52.340847
-28.912567 -115.10689 52.903008
-27.917725 -115.22858 53.466389
-26.911095 -115.33361 53.952702
-25.897278 -115.42934 54.395866
-24.881767 -115.52523 54.839844
-23.864544 -115.62128 55.284492
-22.845627 -115.71749 55.729923
-21.824074 -115.812 56.167484
-20.788769 -115.88346 56.498241
-19.752216 -115.95499 56.829414
-18.714355 -116.02661 57.161003
-17.675224 -116.0983 57.492985
-16.634827 -116.1701 57.825367
-15.588398 -116.23199 58.111908
-14.534225 -116.27959 58.332203
-13.479164 -116.32721 58.55267
-12.423229 -116.37488 58.773384
-11.366447 -116.42258 58.994183
-10.308781 -116.47033 59.215267
-9.2434616 -116.50175 59.360729
-8.174469 -116.52563 59.471268
-7.1050262 -116.54951 59.58189
-6.0351601 -116.57342 59.692509
-4.9648361 -116.59732 59.803162
-3.8941116 -116.62124 59.913891
-2.8168259 -116.62827 59.946476
-1.7390442 -116.63425 59.974239
-0.66082764 -116.63937 59.997826
0.42116547 -116.63335 59.969997
1.5030403 -116.62733 59.942101
2.5860901 -116.61732 59.895828
3.6732788 -116.59305 59.783421
4.7600365 -116.56878 59.67107
5.846344 -116.54453 59.558743
6.9321709 -116.52027 59.446499
8.0175705 -116.49604 59.334267
9.1062031 -116.45775 59.156971
10.196802 -116.40853 58.929161
11.286488 -116.35937 58.701561
12.375271 -116.31023 58.474121
13.463127 -116.26115 58.246864
14.5501 -116.21194 58.019108
15.641453 -116.13669 57.67062
16.731407 -116.06157 57.322884
17.819942 -115.98655 56.975521
18.907055 -115.91162 56.628647
19.992805 -115.83678 56.282185
21.079754 -115.74531 55.858707
22.166702 -115.64273 55.383747
23.251659 -115.54032 54.909622
24.334726 -115.4381 54.436382
25.415878 -115.33606 53.964005
26.496397 -115.22281 53.439747
27.576721 -115.09089 52.828968
28.654549 -114.95925 52.219555
29.729923 -114.82793 51.611511
30.802879 -114.6969 51.004894
31.874174 -114.55349 50.340965
32.94397 -114.38935 49.5811
34.010689 -114.22568 48.823391
35.074394 -114.06248 48.067829
36.135059 -113.89976 47.314434
37.193138 -113.71276 46.448765
38.247875 -113.51282 45.523067
39.298927 -113.31356 44.600574
40.346298 -113.11501 43.681362
41.389854 -112.90951 42.730034
42.428528 -112.66492 41.597641
43.462757 -112.42378 40.481274
44.492622 -112.18369 39.369751
45.517754 -111.93846 38.234432
46.535107 -111.64397 36.871052
47.547318 -111.35336 35.525589
48.554283 -111.06425 34.187138
49.552917 -110.7432 32.700825
50.542168 -110.38808 31.056761
51.52507 -110.03523 29.423214
52.499687 -109.66788 27.722467
53.457161 -109.22057 25.651567
54.407696 -108.78304 23.626034
55.340736 -108.28207 21.306656
56.254429 -107.7173 18.691996
-57.511383 -106.79076 19.023067
-56.86911 -107.18727 20.87595
-56.217155 -107.58129 22.717146
-55.500351 -107.90981 24.252243
-54.779121 -108.24033 25.796764
-54.053452 -108.57289 27.35078
-53.301308 -108.88163 28.793468
-52.518921 -109.16123 30.10004
-51.732498 -109.44228 31.413351
-50.942017 -109.72478 32.733433
-50.131432 -109.98904 33.968304
-49.295456 -110.22788 35.084377
-48.455849 -110.46777 36.205372
-47.612587 -110.70871 37.331264
-46.764923 -110.94979 38.457798
-45.884262 -111.15367 39.410461
-45.000351 -111.35829 40.366642
-44.113159 -111.56367 41.326389
-43.222687 -111.76981 42.289639
-42.321609 -111.96664 43.209454
-41.400124 -112.14027 44.020763
-40.475792 -112.31441 44.834538
-39.548569 -112.48913 45.650902
-38.618477 -112.66438 46.46981
-37.679283 -112.83109 47.248821
-36.722786 -112.97673 47.929398
-35.763802 -113.12276 48.611801
-34.802391 -113.26918 49.295933
-33.838448 -113.41595 49.981834
-32.870895 -113.56137 50.661381
-31.884438 -113.68091 51.220009
-30.895889 -113.8007 51.779816
-29.905258 -113.92077 52.340847
-28.912567 -114.04108 52.903008
-27.917725 -114.16164 53.466389
-26.911095 -114.26571 53.952702
-25.897278 -114.36055 54.395866
-24.881767 -114.45555 54.839844
-23.864544 -114.55072 55.284492
-22.845627 -114.64603 55.729923
-21.824074 -114.73967 56.167484
-20.788769 -114.81046 56.498241
-19.752216 -114.88132 56.829414
-18.714355 -114.95228 57.161003
-17.675224 -115.02333 57.492985
-16.634827 -115.09446 57.825367
-15.588398 -115.15578 58.111908
-14.534225 -115.20293 58.332203
-13.479164 -115.25011 58.55267
-12.423229 -115.29734 58.773384
-11.366447 -115.3446 58.994183
-10.308781 -115.39188 59.215267
-9.2434616 -115.42303 59.360729
-8.174469 -115.44669 59.471268
-7.1050262 -115.47036 59.58189
-6.0351601 -115.49403 59.692509
-4.9648361 -115.51771 59.803162
-3.8941116 -115.5414 59.913891
-2.8168259 -115.54838 59.946476
-1.7390442 -115.55432 59.974239
-0.66082764 -115.55936 59.997826
0.42116547 -115.55341 59.969997
1.5030403 -115.54745 59.942101
2.5859985 -115.53776 59.896847
3.6732788 -115.51349 59.783421
4.7600365 -115.48944 59.67107
5.846344 -115.46541 59.558743
6.9321709 -115.44138 59.446499
8.0175705 -115.41738 59.334267
9.1062031 -115.37944 59.156971
10.196802 -115.33068 58.929161
11.286488 -115.28197 58.701561
12.375271 -115.23328 58.474121
13.463127 -115.18467 58.246864
14.5501 -115.13592 58.019108
15.641453 -115.06136 57.67062
16.731407 -114.98693 57.322884
17.819942 -114.91259 56.975521
18.907055 -114.83837 56.628647
19.992805 -114.76422 56.282185
21.079754 -114.6736 55.858707
22.166702 -114.57196 55.383747
23.251659 -114.4705 54.909622
24.334726 -114.36922 54.436382
25.415878 -114.26813 53.964005
26.496397 -114.15594 53.439747
27.576721 -114.02523 52.828968
28.654549 -113.89482 52.219555
29.729923 -113.76471 51.611511
30.802879 -113.63489 51.004894
31.874144 -113.49306 50.342136
32.94397 -113.33018 49.5811
34.010689 -113.16804 48.823391
35.074394 -113.00635 48.067829
36.135059 -112.84513 47.314434
37.193138 -112.65987 46.448765
38.247875 -112.46177 45.523067
39.298927 -112.26436 44.600574
40.346298 -112.06765 43.681362
41.389862 -111.86438 42.731499
42.428528 -111.62171 41.597641
43.462757 -111.38282 40.481274
44.492622 -111.14495 39.369751
45.517754 -110.90199 38.234432
46.535107 -110.61023 36.871052
47.547318 -110.32231 35.525589
48.554283 -110.03588 34.187138
49.553005 -109.71859 32.704502
50.542168 -109.36597 31.056761
51.52507 -109.01639 29.423214
52.499763 -108.65288 27.724537
53.457161 -108.20927 25.651567
54.407696 -107.77579 23.626034
55.340736 -107.27946 21.306656
56.254429 -106.71992 18.691996
-57.511383 -105.79272 19.023067
-56.86911 -106.18552 20.87595
-56.217155 -106.57585 22.717146
-55.500351 -106.90131 24.252243
-54.779121 -107.22874 25.796764
-54.053452 -107.55819 27.35078
-53.301308 -107.86404 28.793468
-52.518921 -108.14104 30.10004
-51.732498 -108.41945 31.413351
-50.942017 -108.69932 32.733437
-50.131432 -108.96111 33.968307
-49.295456 -109.19772 35.084377
-48.455849 -109.43537 36.205372
-47.612587 -109.67405 37.331264
-46.764923 -109.91288 38.457798
-45.884262 -110.11485 39.410461
-45.000351 -110.31756 40.366642
-44.113159 -110.52103 41.326389
-43.222687 -110.72523 42.289639
-42.321609 -110.92023 43.209454
-41.400124 -111.09222 44.020763
-40.475792 -111.26477 44.834538
-39.548569 -111.43782 45.650902
-38.618477 -111.61143 46.46981
-37.679283 -111.77659 47.248821
-36.722786 -111.92087 47.929398
-35.763802 -112.06553 48.611801
-34.802391 -112.21058 49.295933
-33.838448 -112.35599 49.981834
-32.870895 -112.50005 50.661381
-31.884438 -112.61848 51.220009
-30.895889 -112.73717 51.779816
-29.905258 -112.85609 52.340847
-28.912567 -112.97528 52.903008
-27.917725 -113.09471 53.466389
-26.911095 -113.1978 53.952702
-25.897278 -113.29176 54.395866
-24.881767 -113.38588 54.839844
-23.864544 -113.48015 55.284492
-22.845627 -113.57457 55.729923
-21.824074 -113.66735 56.167484
-20.788769 -113.73746 56.498241
-19.752216 -113.80767 56.829414
-18.714355 -113.87796 57.161003
-17.675224 -113.94835 57.492985
-16.634827 -114.01881 57.825367
-15.588398 -114.07954 58.111908
-14.534225 -114.12627 58.332203
-13.479164 -114.173 58.55267
-12.423229 -114.21979 58.773384
-11.366447 -114.26659 58.994183
-10.308781 -114.31346 59.215267
-9.2434616 -114.34431 59.360729
-8.174469 -114.36774 59.471268
-7.1050262 -114.39119 59.58189
-6.0351601 -114.41463 59.692509
-4.9648361 -114.43811 59.803162
-3.8941116 -114.46158 59.913891
-2.8168259 -114.46849 59.946476
-1.7390442 -114.47437 59.974239
-0.66082764 -114.47937 59.997826
0.42116547 -114.47346 59.969997
1.5030403 -114.46757 59.942101
2.5859146 -114.45827 59.898338
3.6732788 -114.43391 59.783421
4.7600365 -114.41011 59.67107
5.846344 -114.38628 59.558743
6.9321709 -114.3625 59.446499
8.0175705 -114.3387 59.334267
9.1062031 -114.30112 59.156971
10.196802 -114.25282 58.929161
11.286488 -114.20457 58.701561
12.375271 -114.15633 58.474121
13.463127 -114.10818 58.246864
14.5501 -114.05989 58.019108
15.641453 -113.98602 57.67062
16.731407 -113.91228 57.322884
17.819942 -113.83865 56.975521
18.907055 -113.76511 56.628647
19.992805 -113.69166 56.282185
21.079754 -113.60188 55.858707
22.166702 -113.50119 55.383747
23.251659 -113.40068 54.909622
24.334726 -113.30035 54.436382
25.415878 -113.20021 53.964005
26.496368 -113.08944 53.441555
27.576721 -112.95956 52.828968
28.654549 -112.83039 52.219555
29.729923 -112.70148 51.611511
30.802879 -112.57288 51.004894
31.874102 -112.43288 50.344563
32.94397 -112.27102 49.5811
34.010689 -112.11039 48.823391
35.074394 -111.95022 48.067829
36.135059 -111.7905 47.314434
37.193138 -111.60696 46.448765
38.247875 -111.41072 45.523067
39.298927 -111.21516 44.600574
40.346298 -111.02028 43.681362
41.389862 -110.81891 42.731499
42.428528 -110.57853 41.597641
43.462757 -110.34186 40.481274
44.492622 -110.10621 39.369751
45.517754 -109.86552 38.234432
46.535107 -109.5765 36.871052
47.547318 -109.29125 35.525589
48.554283 -109.0075 34.187141
49.553101 -108.69415 32.709076
50.542168 -108.34386 31.056761
51.52507 -107.99754 29.423214
52.499763 -107.63743 27.724537
53.457161 -107.19796 25.651567
54.407696 -106.76855 23.626034
55.340828 -106.27747 21.309647
56.254429 -105.72253 18.691996
-57.511383 -104.79468 19.023067
-56.86911 -105.18378 20.87595
-56.217155 -105.57043 22.717146
-55.500351 -105.8928 24.252243
-54.779121 -106.21714 25.796764
-54.053452 -106.54349 27.35078
-53.301308 -106.84646 28.793468
-52.518921 -107.12083 30.10004
-51.732498 -107.39663 31.413351
-50.942017 -107.67385 32.733437
-50.131432 -107.93317 33.968307
-49.295456 -108.16756 35.084381
-48.455849 -108.40296 36.205376
-47.612587 -108.63939 37.331268
-46.764923 -108.87596 38.457802
-45.884262 -109.07603 39.410465
-45.000351 -109.27682 40.366642
-44.113159 -109.47837 41.326389
-43.222687 -109.68066 42.289639
-42.321609 -109.87381 43.209454
-41.400124 -110.04419 44.020763
-40.475792 -110.2151 44.834538
-39.548569 -110.38652 45.650902
-38.618477 -110.55849 46.46981
-37.679283 -110.72208 47.248821
-36.722786 -110.86502 47.929398
-35.763802 -111.00832 48.611801
-34.802391 -111.152 49.295933
-33.838448 -111.29603 49.981834
-32.870895 -111.43873 50.661381
-31.884438 -111.55605 51.220009
-30.895889 -111.6736 51.779816
-29.905258 -111.7914 52.340847
-28.912567 -111.90947 52.903008
-27.917725 -112.02779 53.466389
-26.911095 -112.1299 53.952702
-25.897278 -112.22298 54.395866
-24.881767 -112.3162 54.839844
-23.864544 -112.40958 55.284492
-22.845627 -112.50312 55.729923
-21.824074 -112.59501 56.167484
-20.788769 -112.66447 56.498241
-19.752216 -112.73401 56.829414
-18.714355 -112.80363 57.161003
-17.675224 -112.87337 57.492985
-16.634827 -112.94316 57.825367
-15.588398 -113.00333 58.111908
-14.534225 -113.0496 58.332203
-13.479164 -113.09589 58.55267
-12.423229 -113.14223 58.773384
-11.366447 -113.18861 58.994183
-10.308781 -113.23504 59.215267
-9.2434616 -113.26559 59.360729
-8.174469 -113.28881 59.471268
-7.1050262 -113.31203 59.58189
-6.0351601 -113.33527 59.692509
-4.9648361 -113.3585 59.803162
-3.8941116 -113.38174 59.913891
-2.8168259 -113.3886 59.946476
-1.7390442 -113.39442 59.974239
-0.66082764 -113.39938 59.997826
0.42116547 -113.39352 59.969997
1.5030403 -113.38769 59.942101
2.5857887 -113.37881 59.899815
3.6732788 -113.35435 59.783421
4.7600365 -113.33076 59.67107
5.846344 -113.30717 59.558743
6.9321709 -113.2836 59.446499
8.0175705 -113.26004 59.334267
9.1062031 -113.2228 59.156971
10.196802 -113.17496 58.929161
11.286488 -113.12716 58.701561
12.375271 -113.0794 58.474121
13.463127 -113.03168 58.246864
14.5501 -112.98385 58.019108
15.641453 -112.91067 57.67062
16.731407 -112.83764 57.322884
17.819942 -112.76469 56.975521
18.907055 -112.69186 56.628647
19.992805 -112.61909 56.282185
21.079754 -112.53017 55.858707
22.166702 -112.43042 55.383747
23.251659 -112.33086 54.909622
24.334726 -112.23148 54.436382
25.415878 -112.13227 53.964005
26.496315 -112.02302 53.443676
27.576721 -111.89392 52.828968
28.654549 -111.76595 52.219555
29.729923 -111.63826 51.611511
30.802879 -111.51086 51.004894
31.874077 -111.37271 50.347015
32.94397 -111.21186 49.5811
34.010689 -111.05275 48.823391
35.074394 -110.89408 48.067829
36.135059 -110.73587 47.314434
37.193138 -110.55408 46.448765
38.247875 -110.35966 45.523067
39.298927 -110.16595 44.600574
40.346298 -109.97293 43.681362
41.389862 -109.77345 42.731499
42.428528 -109.53532 41.597641
43.462757 -109.3009 40.481274
44.492622 -109.06747 39.369755
45.517754 -108.82906 38.234436
46.535107 -108.54276 36.871056
47.547318 -108.2602 35.525593
48.554283 -107.97913 34.187141
49.553204 -107.6697 32.713711
50.542168 -107.32174 31.056761
51.52507 -106.9787 29.423214
52.499763 -106.62198 27.724537
53.457161 -106.18667 25.651567
54.407696 -105.76129 23.626034
55.341026 -105.27638 21.316879
56.254429 -104.72515 18.691996
-57.511383 -103.79663 19.023067
-56.86911 -104.18203 20.87595
-56.217155 -104.56499 22.717146
-55.500351 -104.8843 24.252243
-54.779121 -105.20556 25.796764
-54.053452 -105.52879 27.35078
-53.301308 -105.82887 28.793468
-52.518921 -106.10063 30.10004
-51.732498 -106.3738 31.413351
-50.942017 -106.64838 32.733437
-50.131432 -106.90524 33.968307
-49.295456 -107.13738 35.084381
-48.455849 -107.37054 36.205376
-47.612587 -107.60473 37.331268
-46.764923 -107.83905 38.457802
-45.884262 -108.03721 39.410465
-45.000351 -108.2361 40.366646
-44.113159 -108.43572 41.326393
-43.222687 -108.63608 42.289642
-42.321609 -108.82739 43.209457
-41.400124 -108.99615 44.020767
-40.475792 -109.16542 44.834538
-39.548569 -109.33523 45.650902
-38.618477 -109.50555 46.46981
-37.679283 -109.66759 47.248821
-36.722786 -109.80915 47.929398
-35.763802 -109.95109 48.611801
-34.802391 -110.09339 49.295933
-33.838448 -110.23606 49.981834
-32.870895 -110.37741 50.661381
-31.884438 -110.4936 51.220009
-30.895889 -110.61004 51.779816
-29.905258 -110.72673 52.340847
-28.912567 -110.84366 52.903008
-27.917725 -110.96085 53.466389
-26.911095 -111.062 53.952702
-25.897278 -111.15417 54.395866
-24.881767 -111.24653 54.839844
-23.864544 -111.33902 55.284492
-22.845627 -111.43166 55.729923
-21.824074 -111.52267 56.167484
-20.788769 -111.59147 56.498241
-19.752216 -111.66035 56.829414
-18.714355 -111.72932 57.161003
-17.675224 -111.79838 57.492985
-16.634827 -111.86752 57.825367
-15.588398 -111.92712 58.111908
-14.534225 -111.97294 58.332203
-13.479164 -112.0188 58.55267
-12.423229 -112.0647 58.773384
-11.366447 -112.11063 58.994183
-10.308781 -112.15661 59.215267
-9.2434616 -112.18687 59.360729
-8.174469 -112.20985 59.471268
-7.1050262 -112.23286 59.58189
-6.0351601 -112.25587 59.692509
-4.9648361 -112.2789 59.803162
-3.8941116 -112.30194 59.913891
-2.8168259 -112.3087 59.946476
-1.7390442 -112.31447 59.974239
-0.66082764 -112.31939 59.997826
0.42116547 -112.3136 59.969997
1.5030403 -112.3078 59.942101
2.5857086 -112.29932 59.901371
3.6732788 -112.27479 59.783421
4.7600365 -112.25142 59.67107
5.846344 -112.22806 59.558743
6.9321709 -112.2047 59.446499
8.0175705 -112.18137 59.334267
9.1062031 -112.14449 59.156971
10.196802 -112.0971 58.929161
11.286488 -112.04976 58.701561
12.375271 -112.00245 58.474121
13.463127 -111.95518 58.246864
14.5501 -111.90781 58.019108
15.641453 -111.83533 57.67062
16.731407 -111.763 57.322884
17.819942 -111.69073 56.975521
18.907055 -111.61859 56.628647
19.992805 -111.54652 56.282185
21.079754 -111.45845 55.858707
22.166702 -111.35966 55.383747
23.251659 -111.26105 54.909622
24.334726 -111.16261 54.436382
25.415878 -111.06435 53.964005
26.496264 -110.95658 53.445858
27.576721 -110.82825 52.828968
28.654549 -110.7015 52.219555
29.729923 -110.57504 51.611511
30.802879 -110.44886 51.004894
31.874067 -110.31253 50.349499
32.94397 -110.15269 49.5811
34.010689 -109.99509 48.823391
35.074394 -109.83794 48.067829
36.135059 -109.68124 47.314434
37.193138 -109.50117 46.448765
38.247875 -109.30862 45.523067
39.298927 -109.11676 44.600574
40.346298 -108.92557 43.681366
41.389862 -108.72799 42.731503
42.428528 -108.49213 41.597645
43.462757 -108.25993 40.481277
44.492622 -108.02874 39.369755
45.517754 -107.79259 38.234436
46.535107 -107.509 36.871056
47.547318 -107.22916 35.525593
48.554283 -106.95076 34.187141
49.553291 -106.64523 32.718323
50.542168 -106.29963 31.056761
51.52507 -105.95985 29.423214
52.499763 -105.60653 27.724537
53.457161 -105.17536 25.651567
54.407696 -104.75404 23.626034
55.34127 -104.27525 21.324118
56.254429 -103.72778 18.691996
-57.511383 -102.79859 19.023067
-56.86911 -103.18027 20.87595
-56.217155 -103.55956 22.717146
-55.500351 -103.87579 24.252243
-54.779121 -104.19396 25.796764
-54.053452 -104.51408 27.35078
-53.301308 -104.81129 28.793468
-52.518921 -105.08044 30.10004
-51.732498 -105.35098 31.413351
-50.942017 -105.62292 32.733437
-50.131432 -105.8773 33.968307
-49.295456 -106.10722 35.084381
-48.455849 -106.33814 36.205376
-47.612587 -106.57008 37.331268
-46.764923 -106.80213 38.457802
-45.884262 -106.99839 39.410465
-45.000351 -107.19537 40.366646
-44.113159 -107.39307 41.326393
-43.222687 -107.59149 42.289642
-42.321609 -107.78097 43.209457
-41.400124 -107.9481 44.020767
-40.475792 -108.11576 44.834541
-39.548569 -108.28393 45.650906
-38.618477 -108.45261 46.469814
-37.679283 -108.6131 47.248825
-36.722786 -108.75331 47.929401
-35.763802 -108.89388 48.611805
-34.802391 -109.0348 49.295937
-33.838448 -109.17609 49.981834
-32.870895 -109.31609 50.661381
-31.884438 -109.43116 51.220009
-30.895889 -109.54649 51.779816
-29.905258 -109.66205 52.340847
-28.912567 -109.77785 52.903008
-27.917725 -109.89392 53.466389
-26.911095 -109.99409 53.952702
-25.897278 -110.08539 54.395866
-24.881767 -110.17685 54.839844
-23.864544 -110.26845 55.284492
-22.845627 -110.3602 55.729923
-21.824074 -110.45034 56.167484
-20.788769 -110.51847 56.498241
-19.752216 -110.5867 56.829414
-18.714355 -110.655 57.161003
-17.675224 -110.7234 57.492985
-16.634827 -110.79187 57.825367
-15.588398 -110.85089 58.111908
-14.534225 -110.89628 58.332203
-13.479164 -110.9417 58.55267
-12.423229 -110.98716 58.773384
-11.366447 -111.03265 58.994183
-10.308781 -111.07819 59.215267
-9.2434616 -111.10815 59.360729
-8.174469 -111.13092 59.471268
-7.1050262 -111.15371 59.58189
-6.0351601 -111.1765 59.692509
-4.9648361 -111.19929 59.803162
-3.8941116 -111.22211 59.913891
-2.8168259 -111.22882 59.946476
-1.7390442 -111.23452 59.974239
-0.66082764 -111.2394 59.997826
0.42116547 -111.23365 59.969997
1.5030403 -111.22792 59.942101
2.5856705 -111.21965 59.902004
3.6732788 -111.19522 59.783421
4.7600365 -111.17208 59.67107
5.846344 -111.14894 59.558743
6.9321709 -111.12582 59.446499
8.0175705 -111.10271 59.334267
9.1062031 -111.06618 59.156971
10.196802 -111.01926 58.929161
11.286488 -110.97236 58.701561
12.375271 -110.92551 58.474121
13.463127 -110.87868 58.246864
14.5501 -110.83178 58.019108
15.641453 -110.75999 57.67062
16.731407 -110.68835 57.322884
17.819942 -110.6168 56.975521
18.907055 -110.54533 56.628647
19.992805 -110.47397 56.282185
21.079754 -110.38673 55.858707
22.166702 -110.28889 55.383747
23.251659 -110.19123 54.909622
24.334726 -110.09373 54.436382
25.415878 -109.99641 53.964005
26.496199 -109.89014 53.448017
27.576721 -109.76261 52.828968
28.654549 -109.63707 52.219555
29.729923 -109.51182 51.611511
30.802879 -109.38685 51.004894
31.874027 -109.25233 50.351929
32.94397 -109.09354 49.5811
34.010689 -108.93745 48.823395
35.074394 -108.78181 48.067833
36.135059 -108.62661 47.314438
37.193111 -108.44865 46.450584
38.247875 -108.2576 45.523071
39.298927 -108.06756 44.600578
40.346298 -107.8782 43.681366
41.389862 -107.68253 42.731503
42.428528 -107.44894 41.597645
43.462757 -107.21898 40.481277
44.492622 -106.99 39.369755
45.517754 -106.75612 38.234436
46.535107 -106.47527 36.871056
47.547318 -106.19811 35.525593
48.554283 -105.92239 34.187141
49.55336 -105.62075 32.722908
50.542168 -105.27752 31.056761
51.52507 -104.941 29.423214
52.499763 -104.59109 27.724537
53.457161 -104.16405 25.651567
54.407696 -103.7468 23.626034
55.341522 -103.27409 21.331352
56.254429 -102.73039 18.691996
-57.511383 -101.80054 19.023067
-56.86911 -102.17853 20.87595
-56.217155 -102.55413 22.717146
-55.500351 -102.86729 24.252243
-54.779121 -103.18237 25.796764
-54.053452 -103.4994 27.35078
-53.301308 -103.7937 28.793468
-52.518921 -104.06024 30.10004
-51.732498 -104.32816 31.413351
-50.942017 -104.59744 32.733437
-50.131432 -104.84937 33.968307
-49.295456 -105.07705 35.084381
-48.455849 -105.30573 36.205376
-47.612587 -105.53542 37.331268
-46.764923 -105.76522 38.457802
-45.884262 -105.95957 39.410465
-45.000351 -106.15463 40.366646
-44.113159 -106.35042 41.326393
-43.222687 -106.54692 42.289642
-42.321609 -106.73457 43.209457
-41.400124 -106.90007 44.020767
-40.475792 -107.0661 44.834541
-39.548569 -107.23262 45.650906
-38.618477 -107.39968 46.469814
-37.679283 -107.5586 47.248825
-36.722786 -107.69744 47.929401
-35.763802 -107.83665 48.611805
-34.802391 -107.9762 49.295937
-33.838448 -108.11613 49.981838
-32.870895 -108.25476 50.661385
-31.884438 -108.36873 51.220013
-30.895889 -108.48293 51.779819
-29.905258 -108.59737 52.340851
-28.912567 -108.71205 52.903011
-27.917725 -108.827 53.466393
-26.911095 -108.9262 53.952705
-25.897278 -109.01659 54.39587
-24.881767 -109.10715 54.839844
-23.864544 -109.19788 55.284492
-22.845627 -109.28873 55.729923
-21.824074 -109.37802 56.167484
-20.788769 -109.44548 56.498241
-19.752216 -109.51304 56.829414
-18.714355 -109.58068 57.161003
-17.675224 -109.64841 57.492985
-16.634827 -109.71622 57.825367
-15.588398 -109.77467 58.111908
-14.534225 -109.81961 58.332203
-13.479164 -109.86459 58.55267
-12.423229 -109.90961 58.773384
-11.366447 -109.95467 58.994183
-10.308781 -109.99976 59.215267
-9.2434616 -110.02943 59.360729
-8.174469 -110.05198 59.471268
-7.1050262 -110.07455 59.58189
-6.0351601 -110.09711 59.692509
-4.9648361 -110.11967 59.803162
-3.8941116 -110.14228 59.913891
-2.8168259 -110.14892 59.946476
-1.7390442 -110.15458 59.974239
-0.66082764 -110.1594 59.997826
0.42116547 -110.15372 59.969997
1.5030403 -110.14804 59.942101
2.5856705 -110.13985 59.902004
3.6732788 -110.11565 59.783421
4.7600365 -110.09275 59.67107
5.846344 -110.06982 59.558743
6.9321709 -110.04692 59.446499
8.0175705 -110.02402 59.334267
9.1062031 -109.98787 59.156971
10.196802 -109.9414 58.929161
11.286488 -109.89496 58.701561
12.375271 -109.84856 58.474121
13.463127 -109.8022 58.246864
14.5501 -109.75574 58.019108
15.641453 -109.68465 57.67062
16.731407 -109.61371 57.322884
17.819942 -109.54285 56.975521
18.907055 -109.47208 56.628647
19.992805 -109.40142 56.282185
21.079737 -109.31523 55.859722
22.166702 -109.21812 55.383747
23.251659 -109.12141 54.909622
24.334726 -109.02486 54.436386
25.415878 -108.9285 53.964008
26.496147 -108.82368 53.450203
27.576721 -108.69696 52.828972
28.654549 -108.57262 52.219559
29.729923 -108.4486 51.611515
30.802879 -108.32484 51.004898
31.873983 -108.19213 50.354362
32.94397 -108.03438 49.581104
34.010689 -107.87981 48.823395
35.074394 -107.72568 48.067833
36.135059 -107.57199 47.314438
37.193115 -107.39632 46.453377
38.247875 -107.20655 45.523071
39.298927 -107.01836 44.600578
40.346298 -106.83084 43.681366
41.389862 -106.63706 42.731503
42.428528 -106.40575 41.597645
43.462757 -106.17802 40.481277
44.492622 -105.95126 39.369755
45.517754 -105.71966 38.234436
46.535107 -105.44153 36.871056
47.547318 -105.16706 35.525593
48.554283 -104.89402 34.187141
49.553474 -104.59625 32.727501
50.542168 -104.25541 31.056761
51.52507 -103.92216 29.423214
52.499763 -103.57564 27.724537
53.457161 -103.15276 25.651567
54.407696 -102.73955 23.626034
55.341751 -102.2729 21.338566
56.254429 -101.733 18.691996
-57.511383 -100.8025 19.023067
-56.86911 -101.17678 20.87595
-56.217155 -101.54869 22.717146
-55.500351 -101.85879 24.252243
-54.779121 -102.17078 25.796764
-54.053452 -102.4847 27.35078
-53.301308 -102.77612 28.793468
-52.518921 -103.04005 30.10004
-51.732498 -103.30533 31.413351
-50.942017 -103.57198 32.733437
-50.131432 -103.82143 33.968307
-49.295456 -104.04689 35.084381
-48.455849 -104.27332 36.205376
-47.612587 -104.50076 37.331268
-46.764923 -104.7283 38.457802
-45.884262 -104.92075 39.410465
-45.000351 -105.11391 40.366646
-44.113159 -105.30776 41.326393
-43.222687 -105.50234 42.289642
-42.321609 -105.68814 43.209457
-41.400124 -105.85204 44.020767
-40.475792 -106.01642 44.834541
-39.548569 -106.18133 45.650906
-38.618477 -106.34675 46.469814
-37.679283 -106.5041 47.248825
-36.722786 -106.64159 47.929401
-35.763802 -106.77942 48.611805
-34.802391 -106.91762 49.295937
-33.838448 -107.05618 49.981838
-32.870895 -107.19345 50.661385
-31.884438 -107.30627 51.220013
-30.895889 -107.41936 51.779819
-29.905258 -107.53268 52.340851
-28.912567 -107.64626 52.903011
-27.917725 -107.76006 53.466393
-26.911095 -107.85828 53.952705
-25.897278 -107.94781 54.39587
-24.881767 -108.03749 54.839848
-23.864544 -108.1273 55.284496
-22.845627 -108.21729 55.729927
-21.824074 -108.30566 56.167488
-20.788769 -108.37247 56.498245
-19.752216 -108.43938 56.829418
-18.714355 -108.50637 57.161007
-17.675224 -108.57343 57.492989
-16.634827 -108.64056 57.825371
-15.588398 -108.69845 58.111912
-14.534225 -108.74295 58.332207
-13.479164 -108.78749 58.552673
-12.423229 -108.83207 58.773388
-11.366447 -108.87667 58.994186
-10.308781 -108.92132 59.215271
-9.2434616 -108.95071 59.360733
-8.174469 -108.97304 59.471272
-7.1050262 -108.99538 59.581894
-6.0351601 -109.01773 59.692513
-4.9648361 -109.04008 59.803165
-3.8941116 -109.06245 59.913895
-2.8168259 -109.06903 59.94648
-1.7390442 -109.07463 59.974243
-0.66082764 -109.0794 59.997829
0.42116547 -109.07378 59.970001
1.5030403 -109.06816 59.942104
2.5856705 -109.06005 59.902008
3.6732788 -109.03609 59.783424
4.7600365 -109.0134 59.671074
5.846344 -108.99071 59.558746
6.9321709 -108.96804 59.446503
8.0175705 -108.94538 59.33427
9.1061134 -108.90987 59.158569
10.196802 -108.86354 58.929165
11.286488 -108.81755 58.701565
12.375271 -108.77161 58.474125
13.463127 -108.72571 58.246868
14.5501 -108.6797 58.019112
15.641453 -108.60931 57.670624
16.731407 -108.53905 57.322887
17.819942 -108.46889 56.975525
18.907055 -108.39883 56.628651
19.992805 -108.32883 56.282188
21.079676 -108.2439 55.861664
22.166702 -108.14735 55.383751
23.251659 -108.05159 54.909626
24.334726 -107.956 54.436386
25.415878 -107.86058 53.964008
26.496065 -107.75722 53.452332
27.576721 -107.63129 52.828972
28.654549 -107.50819 52.219559
29.729923 -107.38538 51.611515
30.802879 -107.26284 51.004898
31.873976 -107.13186 50.356552
32.94397 -106.97522 49.581104
34.010689 -106.82217 48.823395
35.074394 -106.66954 48.067833
36.135059 -106.51736 47.314438
37.193111 -106.34399 46.456215
38.247875 -106.15549 45.523071
39.298927 -105.96917 44.600578
40.346298 -105.78348 43.681366
41.389862 -105.59161 42.731503
42.428528 -105.36256 41.597645
43.462757 -105.13705 40.481277
44.492622 -104.91253 39.369755
45.517754 -104.68319 38.234436
46.535107 -104.40779 36.871056
47.547318 -104.136 35.525593
48.554283 -103.86564 34.187141
49.553577 -103.57172 32.732136
50.542168 -103.2333 31.056761
51.52507 -102.90332 29.423214
52.499763 -102.56019 27.724537
53.457161 -102.14146 25.651567
54.407696 -101.73228 23.626034
55.34198 -101.27168 21.345816
56.254429 -100.73563 18.691996
-57.511383 -99.804451 19.023067
-56.86911 -100.17502 20.87595
-56.217155 -100.54327 22.717146
-55.500351 -100.85029 24.252243
-54.779121 -101.15919 25.796764
-54.053452 -101.46999 27.35078
-53.301308 -101.75853 28.793468
-52.518921 -102.01984 30.10004
-51.732498 -102.2825 31.413351
-50.942017 -102.54652 32.733437
-50.131432 -102.7935 33.968307
-49.295456 -103.01672 35.084381
-48.455849 -103.24092 36.205376
-47.612587 -103.46609 37.331268
-46.764923 -103.6914 38.457802
-45.884262 -103.88194 39.410465
-45.000351 -104.07317 40.366646
-44.113159 -104.26511 41.326393
-43.222687 -104.45777 42.289642
-42.321609 -104.64172 43.209457
-41.400124 -104.804 44.020767
-40.475792 -104.96676 44.834541
-39.548569 -105.13003 45.650906
-38.618477 -105.2938 46.469814
-37.679283 -105.44962 47.248825
-36.722786 -105.58572 47.929401
-35.763802 -105.72221 48.611805
-34.802391 -105.85902 49.295937
-33.838448 -105.99622 49.981838
-32.870895 -106.13213 50.661385
-31.884438 -106.24385 51.220013
-30.895889 -106.3558 51.779819
-29.905258 -106.46802 52.340851
-28.912567 -106.58044 52.903011
-27.917725 -106.69313 53.466393
-26.911095 -106.79037 53.952705
-25.897278 -106.87902 54.39587
-24.881767 -106.9678 54.839848
-23.864544 -107.05675 55.284496
-22.845627 -107.14582 55.729927
-21.824074 -107.23334 56.167488
-20.788769 -107.29948 56.498245
-19.752216 -107.36573 56.829418
-18.714355 -107.43204 57.161007
-17.675224 -107.49845 57.492989
-16.634827 -107.56492 57.825371
-15.588398 -107.62223 58.111912
-14.534225 -107.66629 58.332207
-13.479164 -107.71038 58.552673
-12.423229 -107.75452 58.773388
-11.366447 -107.79869 58.994186
-10.308781 -107.8429 59.215271
-9.2434616 -107.87199 59.360733
-8.174469 -107.8941 59.471272
-7.1050262 -107.91621 59.581894
-6.0351601 -107.93835 59.692513
-4.9648361 -107.96046 59.803165
-3.8941116 -107.98263 59.913895
-2.8168259 -107.98915 59.94648
-1.7390442 -107.99467 59.974243
-0.66082764 -107.9994 59.997829
0.42116547 -107.99385 59.970001
1.5030403 -107.98827 59.942104
2.5856705 -107.98025 59.902008
3.6732788 -107.95653 59.783424
4.7600365 -107.93404 59.671074
5.846344 -107.91159 59.558746
6.9321709 -107.88914 59.446503
8.0175705 -107.8667 59.33427
9.105999 -107.83189 59.160187
10.196802 -107.78569 58.929165
11.286488 -107.74015 58.701565
12.375271 -107.69466 58.474125
13.463127 -107.64922 58.246868
14.5501 -107.60366 58.019112
15.641453 -107.53397 57.670624
16.731407 -107.46442 57.322887
17.819942 -107.39495 56.975525
18.907055 -107.32557 56.628651
19.992805 -107.25628 56.282188
21.079603 -107.17255 55.863575
22.166702 -107.0766 55.383751
23.251659 -106.98177 54.909626
24.334726 -106.88713 54.436386
25.415878 -106.79264 53.964008
26.496077 -106.69054 53.453506
27.576721 -106.56564 52.828972
28.654549 -106.44375 52.219559
29.729923 -106.32215 51.611515
30.802879 -106.20082 51.004898
31.873976 -106.07114 50.356552
32.94397 -105.91606 49.581104
34.010689 -105.76453 48.823395
35.074394 -105.61341 48.067833
36.135059 -105.46273 47.314438
37.193115 -105.29164 46.459011
38.247875 -105.10445 45.523071
39.298927 -104.91997 44.600578
40.346298 -104.73611 43.681366
41.389862 -104.54613 42.731503
42.428528 -104.31937 41.597645
43.462757 -104.09609 40.481277
44.492622 -103.87379 39.369755
45.517754 -103.64673 38.234436
46.535107 -103.37405 36.871056
47.547318 -103.10497 35.525593
48.554283 -102.83727 34.187141
49.55365 -102.54717 32.736721
50.542168 -102.21118 31.056761
51.52507 -101.88447 29.423214
52.499763 -101.54475 27.724537
53.457161 -101.13016 25.651567
54.407696 -100.72504 23.626034
55.342205 -100.27044 21.353031
56.254429 -99.738243 18.691996
-57.511383 -98.806412 19.023067
-56.86911 -99.173271 20.87595
-56.217155 -99.537827 22.717146
-55.500351 -99.841774 24.252243
-54.779121 -100.14759 25.796764
-54.053452 -100.45528 27.35078
-53.301308 -100.74094 28.793468
-52.518921 -100.99964 30.10004
-51.732498 -101.25968 31.413351
-50.942017 -101.52105 32.733437
-50.131432 -101.76557 33.968307
-49.295456 -101.98655 35.084381
-48.455849 -102.2085 36.205376
-47.612587 -102.43143 37.331268
-46.764923 -102.65447 38.457802
-45.884262 -102.84312 39.410465
-45.000351 -103.03243 40.366646
-44.113159 -103.22247 41.326393
-43.222687 -103.41319 42.289642
-42.321609 -103.59531 43.209457
-41.400124 -103.75596 44.020767
-40.475792 -103.91709 44.834541
-39.548569 -104.07873 45.650906
-38.618477 -104.24087 46.469814
-37.679283 -104.39511 47.248825
-36.722786 -104.52987 47.929401
-35.763802 -104.66498 48.611805
-34.802391 -104.80044 49.295937
-33.838448 -104.93625 49.981838
-32.870895 -105.0708 50.661385
-31.884438 -105.1814 51.220013
-30.895889 -105.29226 51.779819
-29.905258 -105.40334 52.340851
-28.912567 -105.51465 52.903011
-27.917725 -105.62619 53.466393
-26.911095 -105.72248 53.952705
-25.897278 -105.81023 54.39587
-24.881767 -105.89812 54.839848
-23.864544 -105.98618 55.284496
-22.845627 -106.07437 55.729927
-21.824074 -106.16101 56.167488
-20.788769 -106.22649 56.498245
-19.752216 -106.29208 56.829418
-18.714355 -106.35772 57.161007
-17.675224 -106.42345 57.492989
-16.634827 -106.48928 57.825371
-15.588398 -106.546 58.111912
-14.534225 -106.58963 58.332207
-13.479164 -106.63329 58.552673
-12.423229 -106.67697 58.773388
-11.366447 -106.72071 58.994186
-10.308781 -106.76447 59.215271
-9.2434616 -106.79327 59.360733
-8.174469 -106.81517 59.471272
-7.1050262 -106.83707 59.581894
-6.0351601 -106.85896 59.692513
-4.9648361 -106.88087 59.803165
-3.8941116 -106.90279 59.913895
-2.8168259 -106.90925 59.94648
-1.7390442 -106.91473 59.974243
-0.66082764 -106.91942 59.997829
0.42116547 -106.91389 59.970001
